117 143 189 253 316 364 425 425 460 537 603 679 725 746 696 688 680 712 773 763 750 720 654 616 520 455 463 382 293 218 162 98 -13 -145 -184 -233 -248 -214 -169 -107 -148 -132 -163 -184 -215 -245 -246 -157 -92 -78 31 110 154 208 320 346 357 389 471 517 546 575 612 594 560 564 614 617 645 690 670 562 493 376 259 241 188 68 21 -18 -106 -146 -134 -139 -182 -191 -140 -18 -18 30 66 -2 -33 33 51 89 106 97 29 -33 -171 -263 -300 -300 -300 -300 -300 -300 -300 -300 -300 -300 -300 -300 -300 -300 -300 -300 -300 -288 -233 -204 -134 -84 -53 -18 43 69 72 75 61 76 56 24 94 134 204 231 239 283 369 443 418 442 471 468 416 354 371 383 412 451 427 416 410 309 229 182 144 79 23 -40 -136 -208 -285 -277 -279 -289 -300 -300 -300 -300 -300 -300 -300 -300 -300 -300 -300 -300 -300 -300 -300 -300 -300 -300 -300 -300 -300 -300 -300 -300 -300 -300 -300 -300 -300 -300 -300 -300 -300 -300 -300 -300 -300 -300 -300 -300 -300 -300 -300 -300 -300 -300 -300 -300 -300 -300 -300 -300 -300 -300 -300 -300 -300 -300 -300 -300 -300 -300 -300 -300 -300 -300 -300 -300 -300 -300 -300 -300 -300 -300 -300 -300 -300 -300 -300 -300 -300 -300 -300 -300 -300 -300 -300 -300
36 120 174 234 326 404 442 451 513 626 656 689 679 707 682 655 613 687 762 750 730 739 733 639 512 490 465 341 205 109 -9 -88 -175 -278 -297 -300 -300 -300 -261 -174 -157 -122 -173 -251 -279 -300 -300 -270 -161 -125 -6 72 129 192 316 328 371 402 485 560 605 655 685 646 611 581 648 669 655 665 663 591 540 471 366 310 292 210 154 134 50 -45 -45 -101 -150 -144 -103 -34 -30 64 124 48 28 68 76 139 130 106 22 -40 -148 -260 -300 -300 -300 -300 -300 -300 -300 -300 -300 -300 -300 -300 -300 -300 -300 -300 -300 -278 -233 -200 -138 -103 -67 -43 18 122 129 142 171 165 169 142 136 201 280 312 324 340 398 445 422 414 396 371 340 311 324 326 422 489 445 445 424 347 285 223 153 82 55 -20 -120 -194 -283 -280 -239 -272 -300 -300 -300 -300 -300 -300 -300 -300 -300 -300 -300 -300 -300 -300 -300 -300 -300 -300 -300 -300 -300 -300 -300 -300 -300 -300 -300 -300 -300 -300 -300 -300 -300 -300 -300 -300 -300 -300 -300 -300 -300 -300 -300 -300 -300 -300 -300 -300 -300 -300 -300 -300 -300 -300 -300 -300 -300 -300 -300 -300 -300 -300 -300 -300 -300 -300 -300 -300 -300 -300 -300 -300 -300 -300 -300 -300 -300 -300 -300 -300 -300 -300 -300 -300 -300 -300 -300 -300
24 91 149 218 324 395 447 496 573 679 747 688 647 689 653 595 559 628 686 708 716 752 728 625 538 460 429 283 138 -25 -147 -234 -288 -300 -300 -300 -300 -300 -300 -234 -200 -138 -180 -266 -300 -300 -300 -300 -251 -139 -36 23 104 175 259 346 359 427 489 579 629 697 722 726 666 606 649 628 605 602 592 615 575 541 427 365 385 308 257 223 140 56 -5 -60 -97 -102 -81 -30 24 102 133 78 38 103 87 124 172 121 41 -63 -133 -223 -300 -300 -300 -300 -300 -300 -300 -300 -300 -300 -300 -300 -300 -300 -300 -300 -285 -258 -206 -222 -178 -139 -139 -103 -8 152 198 246 228 243 260 232 237 237 338 365 391 398 440 466 435 399 383 362 263 257 264 332 411 453 451 437 390 327 262 189 162 93 44 -56 -136 -198 -270 -300 -235 -229 -281 -300 -300 -300 -300 -300 -300 -300 -300 -300 -300 -300 -300 -300 -300 -300 -300 -300 -300 -300 -300 -300 -300 -300 -300 -300 -300 -300 -300 -300 -300 -300 -300 -300 -300 -300 -300 -300 -300 -300 -300 -300 -300 -300 -300 -300 -300 -300 -300 -300 -300 -300 -300 -300 -300 -300 -300 -300 -300 -300 -300 -300 -300 -300 -300 -300 -300 -300 -300 -300 -300 -300 -300 -300 -300 -300 -300 -300 -300 -300 -300 -300 -300 -300 -300 -300 -300 -300
91 117 155 231 311 399 498 555 634 699 758 700 649 686 664 608 565 553 608 675 708 716 660 559 452 395 297 135 34 -82 -209 -300 -300 -300 -300 -300 -300 -300 -300 -300 -266 -202 -220 -270 -275 -300 -300 -300 -300 -205 -78 13 123 210 276 348 359 397 402 478 564 667 749 771 728 658 640 639 618 589 521 573 585 551 484 469 419 372 323 223 135 58 7 -22 -37 -10 25 76 138 172 137 72 95 164 114 105 145 96 -19 -139 -222 -257 -300 -300 -300 -300 -300 -300 -300 -300 -300 -300 -300 -300 -300 -300 -300 -300 -253 -249 -221 -237 -215 -228 -209 -126 -58 89 182 232 200 208 297 332 314 308 365 407 448 451 468 451 428 386 343 315 253 225 182 239 320 373 376 334 344 311 184 109 87 42 -41 -165 -186 -221 -274 -300 -252 -225 -238 -280 -300 -300 -300 -300 -300 -281 -228 -258 -241 -257 -297 -300 -300 -300 -300 -300 -300 -300 -300 -300 -300 -300 -300 -300 -300 -300 -300 -300 -300 -300 -300 -300 -300 -300 -300 -300 -300 -300 -300 -300 -300 -300 -300 -300 -300 -300 -300 -300 -300 -300 -300 -300 -300 -300 -300 -300 -300 -300 -300 -300 -300 -300 -300 -300 -300 -300 -300 -300 -300 -300 -300 -300 -300 -300 -300 -300 -300 -300 -300 -300 -300 -300 -300 -300 -300 -300
122 169 185 239 285 415 517 569 647 672 712 639 592 628 617 585 570 563 587 636 633 605 532 458 327 284 210 75 -42 -164 -298 -300 -300 -300 -300 -300 -300 -300 -300 -300 -300 -284 -263 -300 -300 -300 -300 -300 -300 -234 -95 -1 114 181 241 268 263 300 324 381 511 616 657 696 710 754 724 706 652 602 513 542 578 605 566 500 448 434 331 252 211 137 57 -25 4 33 51 93 134 207 189 130 147 200 127 78 76 -4 -126 -199 -283 -300 -300 -300 -300 -300 -300 -300 -300 -300 -300 -300 -300 -300 -300 -300 -300 -300 -300 -300 -268 -288 -280 -277 -251 -155 -105 -12 53 133 166 239 343 335 292 314 332 368 422 413 436 392 354 333 292 303 293 214 167 190 261 280 277 255 257 249 170 124 85 33 -72 -183 -220 -274 -286 -288 -254 -171 -199 -218 -244 -266 -300 -300 -300 -251 -169 -188 -184 -205 -248 -241 -256 -293 -300 -300 -300 -300 -300 -300 -300 -300 -300 -300 -300 -300 -300 -300 -300 -300 -300 -300 -300 -300 -300 -300 -300 -300 -300 -300 -300 -300 -300 -300 -300 -300 -300 -300 -300 -300 -300 -300 -300 -300 -300 -300 -300 -300 -300 -300 -300 -300 -300 -300 -300 -300 -300 -300 -300 -300 -300 -300 -300 -300 -300 -300 -300 -300 -300 -300 -300 -300 -300 -300 -300 -300
114 174 224 250 270 381 481 583 654 656 618 587 565 524 560 573 575 557 605 587 569 454 414 356 276 207 123 -20 -102 -176 -300 -300 -300 -300 -300 -300 -300 -300 -300 -300 -300 -300 -300 -300 -300 -300 -300 -300 -300 -238 -102 10 85 133 214 185 191 212 254 296 384 505 600 631 698 796 773 773 756 666 546 542 564 619 604 512 480 417 342 273 235 202 100 -2 34 50 78 76 127 185 215 185 191 221 183 78 26 -84 -184 -235 -299 -300 -300 -300 -300 -300 -300 -300 -300 -300 -300 -300 -300 -300 -300 -300 -300 -300 -300 -300 -300 -300 -300 -300 -300 -196 -114 -107 -46 65 145 262 304 294 248 245 299 343 335 319 335 281 254 259 240 268 279 217 193 190 211 226 207 169 171 207 216 133 112 60 -63 -164 -226 -258 -274 -290 -282 -215 -190 -251 -272 -285 -300 -300 -300 -218 -139 -154 -143 -163 -216 -191 -229 -224 -235 -234 -300 -300 -300 -300 -300 -300 -300 -300 -300 -300 -300 -300 -300 -300 -300 -300 -300 -300 -300 -300 -300 -300 -300 -300 -300 -300 -300 -300 -300 -300 -300 -300 -300 -300 -300 -300 -300 -300 -300 -300 -300 -300 -300 -300 -300 -300 -300 -300 -300 -300 -300 -300 -300 -300 -300 -300 -300 -300 -300 -300 -300 -300 -300 -300 -300 -300 -300 -300 -300 -300
162 179 191 216 233 296 394 508 578 661 630 595 528 445 433 494 543 553 567 514 498 401 368 309 234 133 42 -82 -135 -205 -300 -300 -300 -300 -300 -300 -300 -300 -300 -300 -300 -300 -300 -300 -300 -300 -300 -300 -300 -287 -195 -87 8 115 167 134 178 202 212 250 285 372 492 585 720 777 762 794 774 652 593 573 574 566 553 498 431 380 331 256 196 148 120 72 46 61 114 128 142 159 181 178 214 222 193 112 29 -82 -191 -244 -299 -300 -300 -300 -300 -300 -300 -300 -300 -300 -300 -300 -300 -300 -300 -300 -300 -300 -300 -300 -300 -300 -300 -300 -300 -242 -144 -142 -60 34 100 160 225 244 221 228 228 260 272 278 258 226 228 212 180 192 248 262 203 200 209 182 183 173 156 182 178 112 95 61 -24 -100 -186 -217 -259 -300 -300 -300 -300 -300 -300 -300 -300 -300 -300 -238 -123 -111 -145 -131 -120 -144 -166 -123 -148 -164 -258 -300 -300 -300 -300 -300 -300 -300 -300 -300 -300 -300 -300 -300 -300 -300 -300 -300 -300 -300 -300 -300 -300 -300 -300 -300 -300 -300 -300 -300 -300 -300 -300 -300 -300 -300 -300 -300 -300 -300 -300 -300 -300 -300 -300 -300 -300 -300 -300 -300 -300 -300 -300 -300 -300 -300 -300 -300 -300 -300 -300 -300 -300 -300 -300 -300 -300 -300 -300 -300
179 213 178 163 200 228 322 456 521 554 565 556 485 448 399 412 493 516 545 510 475 423 401 357 290 179 63 -72 -140 -218 -300 -300 -300 -300 -300 -300 -300 -300 -300 -300 -300 -300 -300 -300 -300 -300 -300 -300 -300 -300 -265 -150 -41 83 131 93 125 173 196 189 189 285 441 579 701 775 790 787 763 628 555 496 517 530 481 401 318 308 277 212 169 138 125 87 104 139 184 210 178 196 218 232 253 210 203 142 48 -35 -137 -230 -265 -300 -300 -300 -300 -300 -300 -300 -300 -300 -300 -300 -300 -300 -300 -300 -300 -300 -300 -300 -300 -300 -300 -300 -300 -265 -165 -168 -102 -31 50 82 162 125 120 170 185 172 223 198 184 224 213 156 141 140 174 185 191 187 179 170 205 162 127 99 122 57 46 31 -54 -139 -250 -271 -300 -300 -300 -300 -300 -300 -300 -300 -300 -300 -300 -265 -191 -104 -124 -123 -74 -69 -65 -80 -67 -120 -171 -252 -285 -300 -300 -300 -300 -300 -300 -300 -300 -300 -300 -300 -300 -300 -300 -300 -300 -300 -300 -300 -300 -300 -300 -300 -300 -300 -300 -300 -300 -300 -300 -300 -300 -300 -300 -300 -300 -300 -300 -300 -300 -300 -300 -300 -300 -300 -300 -300 -300 -300 -300 -300 -300 -300 -300 -300 -300 -300 -300 -300 -300 -300 -300 -300 -300 -300 -300 -300
194 183 152 100 130 187 291 383 419 430 479 494 461 421 370 348 405 450 504 518 484 453 415 379 298 207 80 -60 -171 -284 -300 -300 -300 -300 -300 -300 -300 -300 -300 -300 -300 -300 -300 -300 -300 -300 -300 -300 -300 -300 -300 -252 -65 55 120 74 95 131 151 126 162 230 410 549 658 766 830 770 690 614 524 518 479 457 410 326 281 255 210 181 158 141 95 115 134 199 268 277 261 257 273 298 293 243 202 159 90 18 -85 -236 -287 -300 -300 -300 -300 -300 -300 -300 -300 -300 -300 -300 -300 -300 -300 -300 -300 -300 -300 -300 -300 -300 -300 -300 -300 -281 -186 -153 -115 -88 -44 40 69 24 46 73 116 117 168 167 181 189 141 98 87 93 103 126 119 150 139 154 170 140 102 60 65 -9 -17 -48 -96 -170 -295 -300 -300 -300 -300 -300 -300 -300 -300 -300 -300 -300 -300 -291 -210 -142 -99 -101 -12 26 42 4 -22 -21 -48 -82 -131 -224 -300 -300 -300 -300 -300 -300 -300 -300 -300 -300 -300 -300 -300 -300 -300 -300 -300 -300 -300 -300 -300 -300 -300 -300 -300 -300 -300 -300 -300 -300 -300 -300 -300 -300 -300 -300 -300 -300 -300 -300 -300 -300 -300 -300 -300 -300 -300 -300 -300 -300 -300 -300 -300 -300 -300 -300 -300 -300 -300 -300 -300 -300 -300 -300 -300 -300
156 150 152 79 77 138 240 277 277 300 389 443 401 352 287 306 364 429 428 422 436 464 455 426 354 243 98 -30 -180 -300 -300 -300 -300 -300 -300 -300 -300 -300 -300 -300 -300 -300 -300 -300 -300 -300 -300 -300 -300 -300 -300 -300 -107 4 84 95 103 124 152 120 155 242 375 480 602 711 805 780 663 611 577 564 458 375 340 352 305 240 230 196 162 160 125 138 154 210 256 262 231 197 230 287 320 276 208 122 62 28 -33 -180 -252 -300 -300 -300 -300 -300 -300 -300 -300 -300 -300 -300 -300 -300 -300 -300 -300 -300 -300 -300 -300 -300 -300 -300 -300 -298 -243 -171 -115 -83 -54 -37 15 8 -49 -49 -16 65 161 197 162 111 70 32 11 33 55 71 79 133 105 62 38 75 118 114 52 -49 -95 -119 -170 -240 -300 -300 -300 -300 -300 -300 -300 -300 -300 -300 -300 -300 -293 -300 -262 -210 -111 -58 54 83 107 57 23 28 -25 -34 -67 -141 -252 -300 -300 -300 -300 -300 -300 -300 -300 -300 -300 -300 -300 -300 -300 -300 -300 -300 -300 -300 -300 -300 -300 -300 -300 -300 -300 -300 -300 -300 -300 -300 -300 -300 -300 -300 -300 -300 -300 -300 -300 -300 -300 -300 -300 -300 -300 -300 -300 -300 -300 -300 -300 -300 -300 -300 -300 -300 -300 -300 -300 -300 -300 -300 -300 -300
78 83 102 57 41 95 152 156 187 253 314 371 365 295 301 351 351 396 414 422 452 486 439 376 348 196 50 -59 -213 -300 -300 -300 -300 -300 -300 -300 -300 -300 -300 -300 -300 -300 -300 -300 -300 -300 -300 -300 -300 -300 -300 -300 -225 -144 -39 84 126 123 172 185 157 271 400 480 558 669 761 740 712 689 667 622 505 397 351 377 396 312 285 273 217 198 230 201 215 226 282 248 191 142 173 247 278 261 145 68 1 -22 -36 -134 -223 -300 -300 -300 -300 -300 -300 -300 -300 -300 -300 -300 -300 -300 -300 -300 -300 -300 -300 -300 -300 -300 -300 -300 -300 -300 -248 -193 -149 -114 -108 -62 -18 -29 -75 -52 -60 11 107 152 79 -9 -53 -40 -32 0 43 37 2 52 4 -57 -65 -11 47 77 -1 -81 -186 -226 -260 -300 -300 -300 -300 -300 -300 -300 -300 -300 -300 -300 -300 -291 -256 -267 -270 -191 -84 -2 71 83 93 112 95 73 35 37 9 -14 -107 -166 -242 -300 -300 -300 -300 -300 -300 -300 -300 -300 -300 -300 -300 -300 -300 -300 -300 -300 -300 -300 -300 -300 -300 -300 -300 -300 -300 -300 -300 -300 -300 -300 -300 -300 -300 -300 -300 -300 -300 -300 -300 -300 -300 -300 -300 -300 -300 -300 -300 -300 -300 -300 -300 -300 -300 -300 -300 -300 -300 -300 -300 -300 -300 -300
28 25 52 59 28 44 81 83 167 179 261 308 323 303 305 385 371 384 430 462 502 479 429 340 251 97 -27 -88 -246 -300 -300 -300 -300 -300 -300 -300 -300 -300 -300 -300 -300 -300 -300 -300 -300 -300 -300 -300 -300 -300 -300 -300 -300 -271 -159 -11 48 103 191 200 188 302 424 495 572 674 756 742 715 729 743 672 535 422 402 431 465 463 401 332 238 249 292 294 324 340 298 207 134 129 153 229 236 201 81 25 -52 -101 -88 -101 -174 -300 -300 -300 -300 -300 -300 -300 -300 -300 -300 -300 -300 -300 -300 -300 -300 -300 -300 -300 -300 -300 -300 -300 -300 -299 -295 -283 -235 -198 -156 -93 -69 -46 -116 -94 -103 -57 7 75 11 -92 -117 -106 -125 -62 -10 -23 -72 -78 -124 -163 -174 -132 -51 -37 -130 -211 -263 -300 -300 -300 -300 -300 -300 -300 -300 -300 -300 -300 -233 -262 -250 -235 -209 -235 -231 -155 -54 32 46 42 62 108 112 128 86 76 52 43 28 -9 -84 -174 -262 -300 -300 -300 -300 -300 -300 -300 -300 -300 -300 -300 -300 -300 -300 -300 -300 -300 -300 -300 -300 -300 -300 -300 -300 -300 -300 -300 -300 -300 -300 -300 -300 -300 -300 -300 -300 -300 -300 -300 -300 -300 -300 -300 -300 -300 -300 -300 -300 -300 -300 -300 -300 -300 -300 -300 -300 -300 -300 -300 -300 -300
29 52 81 80 82 97 75 43 127 185 240 244 244 261 295 363 343 346 369 400 440 410 420 336 177 36 -105 -160 -282 -300 -300 -300 -300 -300 -300 -300 -300 -300 -300 -300 -300 -300 -300 -300 -300 -300 -300 -300 -300 -300 -300 -300 -300 -300 -221 -87 10 88 129 180 201 308 427 492 582 658 720 734 683 697 687 643 567 506 481 447 466 525 471 386 305 285 314 353 392 386 300 263 207 163 129 176 186 182 86 -19 -88 -106 -93 -89 -208 -300 -300 -300 -300 -300 -300 -300 -300 -300 -300 -300 -300 -300 -300 -300 -300 -300 -300 -300 -300 -300 -300 -300 -300 -300 -300 -300 -292 -230 -177 -159 -155 -117 -130 -128 -140 -76 -40 -33 -83 -157 -184 -176 -180 -109 -41 -33 -78 -140 -190 -219 -260 -211 -167 -188 -216 -300 -300 -300 -300 -300 -300 -300 -300 -300 -300 -300 -300 -237 -147 -137 -110 -146 -136 -127 -100 -50 33 100 77 67 82 119 131 149 97 115 104 133 129 103 51 -23 -123 -216 -278 -300 -300 -300 -300 -300 -300 -300 -300 -300 -300 -300 -300 -300 -300 -300 -300 -300 -300 -300 -300 -300 -300 -300 -300 -300 -300 -300 -300 -300 -300 -300 -300 -300 -300 -300 -300 -300 -300 -300 -300 -300 -300 -300 -300 -300 -300 -300 -300 -300 -300 -300 -300 -300 -300 -300 -300 -300 -300 -300
86 54 69 49 76 84 67 97 105 134 130 201 271 317 309 380 375 391 392 410 425 401 372 259 117 -16 -145 -240 -300 -300 -300 -300 -300 -300 -300 -300 -300 -300 -300 -300 -300 -300 -300 -300 -300 -300 -300 -300 -300 -300 -300 -300 -300 -300 -277 -158 -71 74 100 129 213 347 464 511 589 691 702 718 697 703 694 639 623 580 564 524 531 547 489 396 391 387 392 424 473 391 313 289 312 259 197 237 222 170 109 12 -29 -71 -95 -127 -255 -300 -300 -300 -300 -300 -300 -300 -300 -300 -300 -300 -300 -300 -300 -300 -300 -300 -300 -300 -300 -300 -300 -300 -300 -300 -300 -300 -300 -214 -203 -189 -145 -130 -177 -242 -202 -109 -46 -52 -123 -119 -155 -219 -172 -127 -70 -74 -106 -184 -199 -256 -277 -290 -300 -300 -300 -300 -300 -300 -300 -300 -300 -300 -300 -300 -300 -300 -288 -177 -83 -19 -25 -80 -52 -32 -19 32 78 136 171 142 171 170 167 158 156 189 232 214 201 215 136 -11 -106 -235 -279 -300 -300 -300 -300 -300 -300 -300 -300 -300 -300 -300 -300 -300 -300 -300 -300 -300 -300 -300 -300 -300 -300 -300 -300 -300 -300 -300 -300 -300 -300 -279 -254 -240 -215 -264 -300 -276 -300 -300 -300 -300 -300 -300 -300 -300 -300 -300 -300 -300 -300 -300 -300 -300 -300 -300 -300 -300 -300 -300
103 57 28 5 11 41 27 50 37 51 73 218 318 372 408 471 485 431 443 469 479 432 364 226 88 -69 -187 -300 -300 -300 -300 -300 -300 -300 -300 -300 -300 -300 -300 -300 -300 -300 -300 -300 -300 -300 -300 -300 -300 -300 -300 -300 -300 -300 -300 -224 -118 7 70 151 234 316 465 516 579 663 669 718 726 746 688 634 597 574 577 588 588 565 457 410 457 466 469 520 530 459 399 323 311 313 268 295 250 146 59 26 14 -26 -66 -148 -300 -300 -300 -300 -300 -300 -300 -300 -300 -300 -300 -300 -300 -300 -300 -300 -300 -300 -300 -300 -300 -300 -300 -300 -300 -300 -300 -300 -294 -204 -213 -182 -149 -177 -215 -267 -249 -161 -114 -105 -139 -116 -130 -197 -162 -164 -133 -95 -150 -192 -191 -241 -293 -300 -300 -300 -300 -300 -300 -300 -300 -300 -300 -300 -300 -300 -300 -300 -260 -165 -23 38 32 6 42 111 132 166 205 231 260 224 241 244 181 198 246 292 337 307 288 261 170 19 -54 -184 -268 -300 -249 -247 -263 -300 -300 -300 -300 -300 -300 -300 -300 -300 -300 -300 -300 -300 -300 -300 -300 -300 -300 -300 -300 -300 -300 -300 -300 -272 -216 -197 -171 -164 -131 -162 -210 -222 -268 -300 -300 -300 -300 -300 -300 -300 -300 -300 -300 -300 -300 -300 -300 -300 -300 -300 -300 -300 -300 -300
143 78 29 -1 -22 8 21 64 40 53 96 204 327 412 479 516 556 530 479 432 411 404 326 182 44 -123 -236 -300 -300 -300 -300 -300 -300 -300 -300 -300 -300 -300 -300 -300 -300 -300 -300 -300 -300 -300 -300 -300 -300 -300 -300 -300 -300 -300 -300 -288 -153 -47 53 66 162 266 396 449 521 588 580 619 655 692 675 667 624 615 613 606 575 549 501 486 532 554 523 570 579 510 451 397 320 285 267 276 218 162 103 35 9 -28 -106 -212 -300 -300 -300 -300 -300 -300 -300 -300 -300 -300 -300 -300 -300 -300 -300 -300 -300 -300 -300 -300 -300 -300 -300 -300 -300 -300 -300 -300 -300 -225 -215 -205 -193 -220 -244 -229 -202 -167 -156 -94 -111 -112 -187 -233 -199 -156 -149 -129 -152 -162 -202 -239 -294 -300 -300 -300 -300 -300 -300 -300 -300 -300 -300 -300 -300 -300 -291 -229 -157 -95 -7 54 92 95 95 153 193 218 245 266 307 301 275 239 200 261 318 328 351 347 375 303 225 87 17 -106 -237 -276 -234 -203 -184 -222 -300 -300 -300 -300 -300 -300 -300 -300 -300 -300 -300 -300 -300 -300 -300 -300 -300 -300 -300 -300 -300 -300 -300 -229 -143 -126 -151 -179 -159 -159 -161 -202 -270 -300 -300 -300 -300 -300 -300 -300 -300 -300 -300 -300 -300 -300 -300 -300 -300 -300 -300 -300 -300 -300
156 74 19 14 -34 -38 -47 7 38 94 167 243 296 458 520 541 550 575 499 417 367 340 286 142 11 -137 -264 -300 -300 -300 -300 -300 -300 -300 -300 -300 -300 -300 -300 -300 -300 -300 -300 -300 -300 -300 -300 -300 -300 -300 -300 -300 -300 -300 -300 -300 -171 -53 36 38 86 199 327 402 462 481 530 548 611 637 675 677 661 622 635 573 505 504 518 525 559 532 551 585 598 491 452 371 303 255 259 226 214 182 150 77 13 -40 -91 -206 -263 -296 -300 -300 -300 -300 -300 -300 -300 -300 -300 -300 -300 -300 -300 -300 -300 -300 -300 -300 -300 -300 -300 -300 -300 -300 -300 -300 -300 -300 -276 -236 -252 -261 -199 -155 -124 -142 -145 -112 -110 -165 -214 -237 -219 -198 -150 -155 -152 -144 -147 -154 -218 -300 -300 -300 -300 -300 -300 -300 -300 -300 -300 -300 -300 -300 -230 -137 -18 34 70 166 197 159 178 188 203 245 242 252 228 241 274 252 241 333 388 347 329 362 353 329 246 153 72 -7 -144 -176 -183 -186 -169 -236 -287 -294 -300 -300 -300 -300 -300 -300 -300 -300 -300 -300 -300 -300 -300 -300 -300 -300 -300 -300 -300 -300 -300 -228 -135 -77 -124 -133 -150 -124 -153 -162 -232 -300 -300 -300 -300 -300 -300 -300 -300 -300 -300 -300 -300 -300 -300 -300 -300 -300 -300 -300 -300 -300
127 93 28 -44 -80 -102 -85 -39 26 121 218 272 359 515 540 551 564 565 543 495 425 342 271 148 30 -118 -237 -300 -300 -300 -300 -300 -300 -300 -300 -300 -300 -300 -300 -300 -300 -300 -300 -300 -300 -300 -300 -300 -300 -300 -300 -300 -300 -300 -283 -260 -186 -89 -4 82 121 199 279 328 380 401 479 526 591 631 660 667 665 641 625 570 496 477 447 478 519 495 516 542 532 433 394 343 288 241 230 199 206 221 204 98 41 12 -87 -204 -232 -244 -300 -300 -300 -300 -300 -300 -300 -300 -300 -300 -300 -300 -300 -300 -300 -300 -300 -300 -300 -300 -300 -300 -300 -300 -300 -300 -300 -300 -276 -237 -221 -186 -106 -62 -44 -73 -118 -142 -157 -197 -204 -180 -181 -177 -164 -172 -151 -113 -110 -113 -164 -257 -300 -300 -300 -300 -300 -300 -300 -300 -300 -300 -300 -271 -162 -32 69 95 162 234 230 192 192 197 183 185 134 181 188 204 232 248 342 405 422 409 364 336 320 324 250 177 105 -10 -114 -149 -138 -188 -219 -234 -237 -258 -300 -300 -300 -300 -300 -300 -300 -300 -300 -300 -300 -300 -300 -300 -300 -300 -300 -300 -300 -300 -300 -296 -169 -76 -67 -66 -83 -108 -140 -146 -223 -300 -300 -300 -300 -300 -300 -300 -300 -300 -300 -300 -300 -300 -300 -300 -300 -300 -284 -263 -245 -245
107 87 -1 -46 -76 -121 -84 -27 91 175 280 309 381 479 538 563 596 593 568 553 492 386 316 225 72 -38 -156 -300 -300 -300 -300 -300 -300 -300 -300 -300 -300 -300 -300 -300 -300 -300 -300 -300 -300 -300 -300 -300 -300 -300 -300 -300 -300 -300 -272 -247 -172 -85 -10 63 129 208 290 332 379 356 419 448 491 573 616 616 649 638 569 531 482 448 409 416 444 470 504 521 475 432 376 304 246 181 157 156 136 178 153 103 8 -46 -86 -201 -237 -250 -300 -300 -300 -300 -300 -300 -300 -300 -300 -300 -300 -300 -300 -300 -300 -300 -300 -300 -300 -300 -300 -300 -300 -300 -300 -300 -300 -300 -291 -193 -148 -89 -16 18 58 51 -48 -98 -143 -162 -156 -111 -141 -147 -168 -174 -146 -115 -122 -115 -134 -193 -300 -300 -300 -300 -300 -300 -300 -300 -300 -300 -285 -202 -66 49 140 178 222 269 273 217 189 151 140 155 110 97 90 136 178 260 379 406 444 436 391 381 324 337 254 160 79 8 -91 -145 -173 -227 -213 -236 -245 -296 -300 -300 -300 -300 -300 -300 -300 -300 -300 -300 -300 -300 -300 -300 -300 -300 -300 -300 -300 -300 -300 -300 -228 -154 -125 -87 -60 -47 -91 -147 -187 -252 -296 -300 -300 -300 -300 -300 -269 -300 -300 -300 -300 -300 -300 -300 -300 -256 -161 -148 -119 -173
127 122 22 2 -48 -80 -54 42 137 181 237 305 396 460 555 627 640 626 577 604 541 491 382 275 155 16 -96 -196 -300 -300 -300 -300 -300 -300 -300 -300 -300 -300 -300 -300 -300 -300 -300 -300 -300 -300 -300 -300 -300 -300 -300 -300 -300 -300 -300 -270 -190 -104 -45 -5 107 190 218 274 337 292 287 334 420 493 534 574 581 562 508 483 474 420 369 349 370 458 543 572 502 472 441 338 275 190 165 149 85 59 43 36 -73 -106 -154 -218 -269 -300 -300 -300 -300 -300 -300 -300 -300 -300 -300 -300 -300 -300 -300 -300 -300 -300 -300 -300 -300 -300 -300 -300 -300 -300 -300 -300 -300 -300 -284 -160 -91 -4 88 104 106 103 6 -65 -69 -54 -93 -83 -79 -110 -143 -183 -162 -105 -136 -179 -153 -194 -261 -300 -300 -300 -300 -300 -300 -300 -300 -300 -224 -121 -1 87 134 189 207 239 242 230 213 168 160 153 135 58 97 161 198 283 388 435 426 402 428 397 320 328 263 177 118 62 -103 -155 -166 -232 -188 -151 -215 -296 -300 -300 -300 -300 -300 -300 -300 -300 -300 -300 -300 -300 -300 -300 -300 -300 -300 -300 -300 -300 -300 -300 -285 -222 -159 -127 -69 -39 -122 -155 -175 -181 -157 -213 -242 -295 -300 -269 -233 -245 -300 -300 -300 -300 -300 -250 -212 -161 -95 -97 -103 -97
140 174 92 30 25 4 3 79 124 170 209 291 428 490 581 686 716 666 597 608 588 534 418 315 247 140 -9 -161 -300 -300 -300 -300 -300 -300 -300 -300 -300 -300 -300 -300 -300 -300 -300 -300 -300 -300 -300 -300 -300 -300 -300 -300 -300 -300 -278 -237 -151 -112 -101 0 112 135 170 224 241 232 216 211 319 395 474 538 540 541 473 430 421 375 333 319 368 489 562 582 590 544 473 402 333 256 219 167 77 8 -12 -59 -153 -181 -165 -198 -268 -300 -288 -300 -300 -300 -300 -300 -300 -300 -300 -300 -300 -300 -300 -300 -300 -300 -300 -300 -300 -300 -300 -300 -300 -300 -300 -300 -300 -300 -211 -134 -46 74 128 151 178 133 48 24 41 52 28 -15 -43 -57 -108 -156 -139 -71 -110 -163 -157 -184 -225 -300 -300 -300 -300 -300 -300 -300 -244 -198 -146 -112 -37 78 111 142 130 151 162 182 205 191 187 148 82 21 85 143 193 280 372 444 446 400 444 418 333 305 229 203 169 52 -94 -126 -170 -238 -169 -146 -214 -259 -300 -300 -300 -300 -300 -300 -300 -300 -300 -300 -300 -300 -300 -300 -300 -300 -300 -300 -300 -300 -300 -300 -300 -260 -206 -155 -90 -83 -119 -70 -58 -64 -75 -99 -124 -225 -295 -247 -224 -233 -300 -300 -272 -215 -199 -175 -142 -103 -62 -70 -97 -92
181 179 133 95 67 56 40 133 138 154 179 257 392 463 571 641 715 689 680 664 641 562 451 335 265 163 55 -161 -282 -300 -300 -300 -300 -300 -300 -300 -300 -300 -300 -300 -300 -300 -300 -300 -300 -300 -300 -300 -300 -300 -300 -300 -300 -300 -213 -183 -142 -120 -67 12 126 131 137 176 185 171 151 187 280 353 440 498 499 489 429 413 371 372 328 319 386 458 519 585 609 539 508 462 352 315 304 194 76 -32 -87 -130 -189 -227 -240 -262 -300 -300 -300 -300 -300 -300 -300 -300 -300 -300 -300 -300 -300 -300 -300 -300 -300 -300 -300 -300 -300 -300 -300 -300 -300 -300 -300 -300 -300 -231 -202 -128 -35 96 178 187 191 162 123 103 158 109 96 104 74 8 -82 -130 -94 -78 -64 -93 -126 -135 -159 -276 -300 -300 -300 -300 -284 -232 -198 -122 -116 -71 -36 30 70 55 80 125 154 202 216 226 191 129 84 79 79 136 222 321 431 488 467 421 478 462 420 330 298 274 179 41 -53 -137 -153 -176 -162 -126 -188 -242 -300 -300 -300 -300 -300 -300 -300 -300 -300 -300 -300 -300 -300 -300 -300 -300 -300 -300 -300 -300 -300 -300 -300 -300 -218 -140 -65 -23 -25 -18 1 41 46 22 -52 -145 -243 -232 -231 -281 -300 -300 -235 -160 -106 -71 -35 -8 -13 -29 -52 -63
207 210 131 102 110 98 81 164 159 178 195 235 310 444 507 566 651 645 639 650 647 600 489 371 262 147 51 -100 -216 -288 -300 -300 -300 -300 -300 -300 -300 -300 -300 -300 -300 -300 -300 -300 -300 -300 -300 -300 -300 -300 -300 -300 -300 -270 -130 -92 -137 -112 -12 71 101 118 171 211 176 140 170 176 236 323 398 430 431 410 377 372 348 361 345 344 395 439 448 526 522 490 445 430 397 347 320 227 70 -12 -73 -128 -189 -245 -296 -300 -300 -300 -300 -300 -300 -300 -300 -300 -300 -300 -300 -300 -300 -300 -300 -300 -300 -300 -300 -300 -300 -300 -300 -300 -300 -300 -300 -300 -300 -272 -163 -66 42 142 190 211 220 201 192 212 212 157 156 169 164 49 -49 -44 -58 -65 -70 -95 -91 -86 -84 -152 -241 -260 -249 -264 -286 -205 -162 -112 -93 -21 -11 6 0 29 33 79 147 185 177 144 123 65 117 85 84 168 235 329 398 464 471 493 549 508 481 425 363 303 168 23 -84 -136 -113 -133 -151 -144 -159 -249 -300 -300 -300 -300 -300 -300 -300 -300 -300 -300 -300 -300 -300 -300 -300 -300 -300 -300 -300 -300 -300 -300 -300 -285 -172 -119 -58 55 42 3 5 39 52 40 -32 -59 -127 -159 -184 -215 -252 -262 -170 -80 -25 71 97 95 54 78 60 18
230 273 192 156 133 67 68 149 180 233 248 261 299 436 455 454 513 532 516 542 566 560 482 352 258 205 74 -64 -205 -283 -300 -300 -300 -300 -300 -300 -300 -300 -300 -300 -300 -300 -300 -300 -300 -300 -300 -300 -300 -300 -300 -300 -300 -280 -148 -109 -73 -75 -24 56 79 165 194 220 139 91 145 175 182 243 376 405 420 400 369 385 348 363 338 349 415 420 404 454 418 417 426 430 429 352 281 199 84 -2 -89 -98 -145 -207 -222 -268 -300 -300 -300 -300 -300 -300 -300 -300 -300 -300 -300 -300 -300 -300 -300 -300 -300 -300 -300 -300 -300 -300 -300 -300 -300 -300 -300 -300 -300 -252 -101 -2 117 204 279 289 279 289 298 286 284 238 187 141 121 94 -13 -43 -61 -80 -102 -99 -73 -65 -81 -116 -160 -201 -220 -233 -263 -149 -73 -35 -53 -1 -10 9 -21 5 56 53 79 98 96 106 91 50 79 117 178 187 233 277 328 389 404 459 541 568 491 433 388 314 181 45 -48 -91 -96 -147 -180 -193 -188 -262 -300 -300 -300 -300 -300 -300 -300 -300 -300 -300 -300 -300 -300 -300 -300 -300 -300 -300 -300 -300 -300 -300 -300 -271 -145 -64 -21 0 9 -8 -46 0 70 65 6 6 -11 -58 -105 -137 -169 -122 -40 1 51 144 171 184 152 161 133 58
318 322 286 216 190 72 61 114 211 255 288 259 270 366 382 366 419 441 447 456 502 485 474 382 228 151 46 -64 -159 -255 -300 -300 -300 -300 -300 -300 -300 -300 -300 -300 -300 -300 -300 -300 -300 -300 -300 -300 -300 -300 -300 -300 -300 -234 -141 -97 -54 -32 14 71 121 169 180 201 105 25 78 111 129 213 336 401 420 384 372 363 346 386 401 384 428 406 374 358 331 310 361 396 438 387 298 247 112 42 -18 -52 -110 -162 -204 -269 -300 -300 -300 -300 -300 -300 -300 -300 -300 -300 -300 -300 -300 -300 -300 -300 -300 -300 -300 -300 -300 -300 -300 -300 -300 -300 -300 -300 -300 -300 -112 -2 94 226 298 274 271 292 359 338 275 271 212 146 89 18 -5 -67 -77 -76 -105 -82 -80 -33 -42 -88 -113 -154 -200 -257 -265 -147 -35 -7 -4 -15 -15 -34 -32 -8 22 81 74 77 27 55 43 19 59 128 174 207 276 256 249 296 344 433 503 518 496 452 384 247 170 61 -19 -78 -107 -164 -191 -209 -206 -285 -300 -300 -300 -300 -300 -300 -300 -300 -300 -300 -300 -300 -300 -300 -300 -300 -300 -300 -300 -300 -300 -300 -300 -227 -92 -47 -33 -31 -23 -51 -105 -48 2 28 53 82 89 20 13 -41 -59 -45 77 112 168 186 208 205 199 185 160 121
328 366 324 243 209 140 114 150 222 263 270 246 293 351 333 303 335 368 399 403 421 416 403 360 216 67 -48 -108 -190 -282 -300 -300 -300 -300 -300 -300 -300 -300 -300 -300 -300 -300 -300 -300 -300 -300 -300 -300 -300 -300 -300 -300 -300 -227 -156 -116 -97 -42 43 126 159 148 129 94 68 40 64 53 148 241 319 385 379 397 382 364 358 392 480 469 427 418 339 290 264 253 300 329 375 368 319 258 146 104 36 -12 -67 -131 -230 -300 -300 -300 -300 -300 -300 -300 -300 -300 -300 -300 -300 -300 -300 -300 -300 -300 -300 -300 -300 -300 -300 -300 -300 -300 -300 -300 -300 -300 -300 -257 -131 3 100 200 237 259 284 316 373 349 311 299 243 147 75 -19 -74 -76 -67 -69 -78 -61 -40 -3 -41 -98 -105 -115 -191 -285 -282 -197 -86 -36 -8 -26 -52 -114 -118 -85 -22 70 106 54 1 20 73 65 76 91 117 185 229 264 229 256 357 417 469 506 548 518 391 266 195 84 -60 -168 -186 -229 -256 -277 -291 -300 -300 -300 -300 -300 -300 -300 -300 -300 -300 -300 -300 -300 -300 -300 -300 -300 -300 -300 -300 -300 -300 -300 -300 -224 -117 -57 -66 -45 -26 -49 -74 -61 -32 56 146 115 102 79 64 53 26 6 86 130 166 179 185 198 192 164 172 154
297 320 266 251 201 189 224 262 316 323 309 291 317 355 360 319 342 339 327 322 303 322 327 269 183 69 -73 -144 -235 -279 -300 -300 -300 -300 -300 -300 -300 -300 -300 -300 -300 -300 -300 -300 -300 -300 -300 -300 -300 -300 -300 -300 -300 -253 -204 -172 -101 -52 37 85 134 185 177 88 44 45 57 120 203 252 338 393 393 400 387 392 394 382 430 480 442 416 333 283 258 225 239 237 274 323 280 218 122 96 22 3 -39 -118 -197 -300 -300 -300 -300 -300 -300 -300 -300 -300 -300 -300 -300 -300 -300 -300 -300 -300 -300 -300 -300 -300 -300 -300 -300 -300 -300 -300 -300 -300 -300 -169 -97 39 154 268 311 336 310 332 368 372 331 278 226 118 49 -55 -136 -109 -79 -115 -128 -120 -98 -38 -71 -115 -142 -113 -156 -204 -201 -170 -144 -99 -35 -66 -99 -140 -124 -70 -15 10 10 -35 -61 -7 31 52 91 118 141 167 173 228 198 220 352 450 511 542 558 511 409 298 214 75 -88 -184 -246 -300 -300 -300 -300 -300 -300 -300 -300 -300 -300 -300 -300 -300 -300 -300 -300 -300 -300 -300 -300 -300 -300 -300 -300 -300 -300 -300 -300 -264 -150 -100 -135 -124 -95 -100 -108 -95 -38 19 138 141 89 83 85 87 25 7 47 90 97 119 109 133 173 201 198 143
226 253 252 220 178 219 276 301 338 323 338 319 337 331 348 319 262 274 304 248 253 270 267 223 118 30 -70 -193 -283 -300 -300 -300 -300 -300 -300 -300 -300 -300 -300 -300 -300 -300 -300 -300 -300 -300 -300 -300 -300 -300 -300 -300 -300 -258 -223 -196 -127 -81 58 126 155 174 131 99 74 112 117 170 259 318 379 394 366 366 448 417 393 412 419 442 465 443 427 303 222 201 181 175 169 230 220 204 161 125 43 11 -51 -83 -161 -246 -300 -300 -300 -300 -300 -300 -300 -300 -300 -300 -300 -300 -300 -300 -300 -300 -300 -300 -300 -300 -300 -300 -300 -300 -300 -300 -300 -293 -239 -155 -38 80 191 302 387 375 365 372 377 383 350 260 185 54 -18 -121 -140 -149 -113 -135 -153 -180 -176 -122 -114 -162 -167 -153 -169 -208 -183 -171 -186 -141 -125 -152 -192 -196 -137 -108 -74 -42 -51 -72 -102 -28 11 26 70 147 112 132 163 158 146 248 373 494 512 577 603 530 442 322 245 92 -114 -230 -300 -300 -300 -300 -300 -300 -300 -300 -300 -300 -300 -300 -300 -300 -300 -300 -300 -300 -300 -300 -300 -300 -300 -300 -300 -300 -300 -300 -294 -234 -166 -176 -209 -239 -188 -158 -156 -69 -20 30 103 132 99 88 110 107 79 33 11 18 14 33 12 44 119 167 180 113
200 210 215 189 143 157 239 304 328 346 359 297 272 286 264 235 200 210 255 198 201 231 226 167 56 -2 -106 -211 -297 -300 -300 -300 -300 -300 -300 -300 -300 -300 -300 -300 -300 -300 -300 -300 -300 -300 -300 -300 -300 -300 -300 -295 -214 -196 -199 -185 -75 -11 104 183 157 125 131 114 123 143 147 226 329 359 339 375 399 453 510 486 450 465 496 456 427 452 446 371 274 208 136 174 166 202 246 272 241 224 144 63 0 -44 -115 -210 -300 -300 -300 -300 -300 -300 -300 -300 -300 -300 -300 -300 -300 -300 -300 -300 -300 -300 -300 -300 -300 -300 -300 -300 -300 -300 -300 -299 -255 -143 -8 83 197 285 320 359 368 361 386 375 323 250 187 28 -56 -115 -155 -202 -203 -208 -210 -205 -232 -225 -161 -159 -164 -163 -187 -206 -171 -174 -182 -191 -202 -192 -231 -288 -256 -219 -118 -73 -84 -97 -106 -80 -85 -72 17 113 116 117 131 123 176 273 387 466 490 585 607 526 404 324 245 120 -27 -191 -300 -300 -300 -300 -300 -300 -300 -300 -300 -300 -300 -300 -300 -300 -300 -300 -300 -300 -300 -300 -300 -300 -300 -300 -300 -300 -300 -300 -193 -160 -197 -270 -293 -300 -300 -280 -168 -99 -38 73 103 111 149 154 172 165 132 56 -8 -21 -44 -34 -56 -62 0 57 102 62
116 143 141 140 98 79 162 267 285 315 307 272 219 264 226 156 145 168 176 111 92 136 121 53 -13 -68 -142 -186 -273 -300 -300 -300 -300 -300 -300 -300 -300 -300 -300 -300 -300 -300 -300 -300 -300 -300 -300 -300 -300 -300 -300 -300 -205 -163 -116 -60 29 144 209 222 171 189 225 194 243 250 264 295 357 337 366 436 491 548 548 542 553 568 593 558 496 485 441 401 282 245 203 219 214 229 275 303 340 297 229 118 112 59 -10 -124 -239 -300 -300 -300 -300 -300 -300 -300 -300 -300 -300 -300 -300 -300 -300 -300 -300 -300 -300 -300 -300 -300 -300 -300 -300 -300 -300 -290 -242 -158 -63 15 124 177 276 362 348 322 375 310 232 192 139 37 -16 -107 -144 -183 -228 -243 -294 -300 -300 -274 -225 -209 -190 -200 -206 -257 -208 -188 -204 -268 -256 -220 -291 -300 -300 -281 -203 -159 -176 -193 -171 -145 -149 -78 2 110 172 152 143 119 160 213 354 417 447 514 546 496 408 316 214 88 18 -172 -300 -300 -300 -300 -300 -300 -300 -300 -300 -300 -300 -300 -300 -300 -300 -300 -300 -300 -300 -300 -300 -300 -300 -300 -300 -300 -300 -255 -184 -172 -242 -300 -300 -300 -300 -271 -200 -149 -25 75 76 125 174 175 159 89 33 -36 -116 -105 -124 -125 -150 -146 -67 -9 46 25
5 18 64 23 -11 -8 74 160 206 266 264 249 192 186 173 104 43 42 30 -22 -22 41 17 -15 -80 -119 -185 -224 -296 -300 -300 -300 -300 -300 -300 -300 -300 -300 -300 -300 -300 -300 -300 -300 -300 -300 -300 -300 -300 -300 -300 -284 -191 -120 -44 25 159 235 282 271 240 278 315 339 380 402 370 379 378 371 401 505 574 620 636 615 613 661 670 654 570 529 495 444 361 327 322 337 297 320 336 352 371 356 291 200 173 110 -10 -126 -250 -300 -300 -300 -300 -300 -300 -300 -300 -300 -300 -300 -300 -300 -300 -300 -300 -300 -300 -300 -300 -300 -300 -300 -300 -300 -300 -300 -220 -110 -31 17 94 142 237 301 338 327 359 260 166 127 80 70 14 -64 -122 -132 -200 -290 -300 -300 -300 -300 -254 -230 -206 -152 -220 -270 -266 -260 -295 -300 -300 -300 -300 -300 -300 -300 -300 -251 -279 -300 -274 -238 -160 -97 -5 69 169 153 133 117 93 173 239 293 386 426 448 440 356 310 198 89 38 -104 -253 -300 -300 -300 -300 -300 -300 -300 -300 -300 -300 -300 -300 -300 -300 -300 -300 -300 -300 -300 -300 -300 -300 -300 -300 -300 -290 -256 -246 -246 -268 -300 -296 -263 -276 -262 -223 -152 -45 18 44 114 164 148 98 4 -106 -190 -195 -232 -217 -214 -188 -156 -145 -77 -10 -50
-122 -117 -103 -92 -67 -27 -23 28 95 149 160 155 124 95 40 11 -53 -82 -81 -96 -101 -50 -45 -64 -125 -158 -201 -268 -300 -300 -300 -300 -300 -300 -300 -300 -300 -300 -300 -300 -300 -300 -300 -300 -300 -300 -300 -300 -300 -300 -300 -230 -147 -80 -14 44 177 251 296 340 351 380 422 481 488 495 481 467 435 445 480 532 555 604 634 609 591 626 709 693 584 548 549 537 484 466 456 447 379 352 399 404 363 328 288 230 150 55 -30 -115 -237 -300 -300 -300 -300 -300 -300 -300 -300 -300 -300 -300 -300 -300 -300 -300 -300 -300 -300 -300 -300 -300 -300 -300 -300 -300 -273 -239 -135 -54 5 81 130 167 229 267 296 292 291 227 108 31 26 22 -30 -44 -91 -115 -154 -245 -283 -300 -300 -300 -300 -295 -244 -155 -186 -256 -298 -300 -300 -300 -300 -300 -300 -300 -300 -300 -300 -300 -300 -300 -300 -273 -198 -141 -68 -28 87 122 68 23 68 109 134 208 339 412 396 396 370 301 192 124 88 4 -114 -239 -300 -300 -300 -300 -300 -300 -300 -300 -300 -300 -300 -300 -300 -300 -300 -300 -300 -300 -300 -300 -300 -300 -300 -300 -294 -300 -300 -294 -300 -251 -198 -239 -239 -207 -174 -124 -49 6 28 28 102 101 16 -68 -167 -245 -260 -300 -300 -268 -212 -180 -202 -164 -113 -148
-265 -210 -233 -224 -188 -113 -98 -78 -4 85 121 91 5 -16 -48 -81 -148 -197 -194 -182 -149 -172 -150 -177 -230 -265 -277 -300 -300 -300 -300 -300 -300 -300 -300 -300 -300 -300 -300 -300 -300 -300 -300 -300 -300 -300 -300 -300 -300 -296 -265 -198 -114 -58 0 34 151 238 285 358 387 438 455 538 547 557 577 534 494 489 535 523 517 572 622 623 590 579 655 693 632 595 585 550 522 511 544 517 467 418 415 371 328 298 294 257 132 46 -66 -143 -265 -300 -300 -300 -300 -300 -300 -300 -300 -300 -300 -300 -300 -300 -300 -300 -300 -300 -300 -300 -300 -300 -300 -300 -247 -265 -255 -226 -130 -16 28 98 133 206 245 286 277 248 193 144 54 -45 -98 -115 -109 -117 -141 -136 -160 -248 -265 -279 -300 -300 -300 -300 -259 -209 -240 -300 -300 -300 -300 -300 -300 -300 -300 -300 -300 -300 -300 -300 -300 -300 -300 -265 -197 -133 -145 -127 -44 -23 -18 -30 6 -7 59 162 270 360 390 376 341 282 212 125 100 32 0 -129 -265 -300 -300 -300 -300 -300 -300 -300 -300 -300 -300 -300 -300 -300 -300 -300 -300 -300 -300 -300 -300 -300 -300 -300 -261 -265 -300 -285 -264 -198 -164 -168 -202 -173 -126 -123 -44 -23 13 30 60 67 -20 -128 -232 -288 -300 -300 -300 -300 -265 -265 -240 -237 -244 -220
-300 -300 -300 -300 -253 -213 -161 -139 -96 34 41 17 -52 -118 -139 -150 -214 -275 -300 -263 -266 -261 -269 -281 -300 -300 -300 -300 -300 -300 -300 -300 -300 -300 -300 -300 -300 -300 -300 -300 -300 -300 -300 -300 -300 -300 -300 -300 -294 -237 -215 -180 -94 -33 -27 16 115 189 261 358 434 500 519 577 609 626 670 583 522 525 549 514 481 539 626 642 606 579 619 634 644 607 581 567 557 573 636 610 527 488 428 401 345 285 279 253 132 44 -76 -161 -271 -300 -300 -300 -300 -300 -300 -300 -300 -300 -300 -300 -300 -300 -300 -300 -300 -300 -300 -300 -300 -300 -300 -245 -190 -216 -199 -184 -113 -22 15 80 126 215 249 272 208 162 90 55 -39 -136 -206 -221 -222 -192 -147 -173 -160 -198 -254 -270 -300 -300 -300 -300 -285 -282 -288 -300 -300 -300 -300 -300 -300 -300 -300 -300 -300 -300 -300 -300 -300 -300 -300 -280 -186 -166 -197 -197 -169 -153 -118 -96 -99 -60 26 103 195 306 356 348 303 236 213 121 109 76 65 -31 -162 -273 -300 -300 -300 -300 -300 -300 -300 -300 -300 -300 -300 -300 -300 -300 -300 -300 -300 -300 -300 -300 -300 -300 -250 -239 -272 -256 -250 -178 -127 -102 -124 -99 -71 -46 -53 -17 -18 29 58 38 -80 -206 -280 -300 -300 -300 -300 -300 -300 -300 -300 -300 -300 -294
-300 -300 -300 -300 -300 -298 -244 -176 -106 -82 -117 -137 -115 -150 -136 -217 -300 -300 -300 -300 -300 -300 -289 -300 -300 -300 -300 -300 -300 -300 -300 -300 -300 -300 -300 -300 -300 -300 -300 -300 -300 -300 -300 -300 -300 -300 -300 -300 -300 -234 -167 -111 -35 -18 -4 66 155 235 325 371 446 555 629 648 669 695 736 683 592 556 548 549 580 560 593 601 605 584 619 645 699 686 645 660 687 694 685 681 606 568 521 504 384 312 305 244 108 6 -42 -96 -210 -300 -300 -300 -300 -300 -300 -300 -300 -300 -300 -300 -300 -300 -300 -300 -300 -300 -300 -300 -300 -300 -300 -264 -169 -121 -64 -35 5 29 21 87 133 200 196 196 163 126 34 4 -57 -129 -196 -222 -238 -236 -133 -126 -160 -155 -156 -227 -300 -300 -300 -279 -255 -300 -300 -300 -300 -300 -300 -300 -300 -300 -300 -300 -300 -300 -300 -300 -300 -300 -300 -300 -287 -268 -234 -243 -256 -207 -175 -203 -144 -87 -36 57 125 215 276 285 308 228 193 118 109 59 53 -34 -108 -199 -262 -300 -300 -300 -300 -300 -300 -300 -300 -300 -300 -300 -300 -300 -300 -300 -300 -300 -300 -300 -300 -300 -270 -248 -300 -273 -193 -96 -22 -52 -85 -74 -28 23 -9 -48 -59 13 3 -65 -162 -290 -300 -300 -300 -300 -300 -300 -300 -300 -300 -300 -300 -300
-300 -300 -300 -300 -300 -300 -300 -286 -207 -197 -198 -217 -157 -163 -138 -203 -300 -300 -300 -300 -300 -300 -300 -300 -300 -300 -300 -300 -300 -300 -300 -300 -300 -300 -300 -300 -300 -300 -300 -300 -300 -300 -300 -300 -300 -300 -300 -300 -270 -243 -165 -121 -36 -14 12 116 231 339 401 478 520 618 658 617 660 727 739 729 699 674 657 647 666 653 615 615 622 657 680 733 766 740 718 714 728 767 769 749 687 623 556 535 454 391 346 290 205 77 -14 -72 -213 -300 -300 -300 -300 -300 -300 -300 -300 -300 -300 -300 -300 -300 -300 -300 -300 -300 -300 -300 -300 -300 -300 -300 -165 -120 -59 61 72 62 53 114 135 172 139 83 84 81 -7 -28 -81 -117 -166 -187 -190 -172 -114 -104 -110 -141 -161 -217 -272 -300 -300 -300 -300 -300 -300 -300 -300 -300 -300 -300 -300 -300 -300 -300 -300 -300 -300 -300 -300 -300 -300 -300 -300 -300 -300 -300 -269 -225 -161 -174 -127 -77 23 74 119 156 167 212 234 207 168 94 93 66 23 -101 -142 -183 -256 -300 -300 -300 -300 -300 -300 -300 -300 -300 -300 -300 -300 -300 -300 -300 -300 -300 -300 -300 -300 -272 -254 -245 -259 -197 -98 0 74 62 0 -19 -9 34 21 4 18 28 -46 -165 -277 -300 -300 -300 -300 -300 -300 -300 -300 -300 -300 -300 -300 -300
-300 -300 -300 -300 -300 -300 -300 -300 -300 -300 -300 -285 -245 -206 -127 -218 -300 -300 -300 -300 -300 -300 -300 -300 -300 -300 -300 -300 -300 -300 -300 -300 -300 -300 -300 -300 -300 -300 -300 -300 -300 -300 -300 -300 -300 -300 -300 -300 -261 -211 -188 -128 -25 2 44 165 279 388 457 543 589 607 629 637 659 721 712 752 808 807 747 742 773 776 687 668 668 714 762 824 851 819 790 779 757 755 803 791 743 659 583 556 494 457 411 331 255 178 55 -52 -190 -300 -300 -300 -300 -300 -300 -300 -300 -300 -300 -300 -300 -300 -300 -300 -300 -300 -300 -300 -300 -300 -300 -300 -239 -137 -40 55 92 107 117 135 146 92 67 28 77 46 -24 -43 -53 -100 -118 -104 -110 -128 -144 -128 -129 -188 -237 -289 -300 -300 -300 -300 -300 -300 -300 -300 -300 -300 -300 -300 -300 -300 -300 -300 -300 -300 -300 -300 -300 -300 -300 -300 -300 -300 -300 -300 -287 -205 -123 -97 -70 10 75 120 139 138 105 115 177 190 158 113 85 48 -39 -144 -182 -192 -273 -300 -300 -300 -300 -300 -300 -300 -300 -300 -300 -300 -300 -300 -300 -300 -300 -300 -300 -300 -300 -212 -207 -214 -183 -73 23 95 128 135 100 51 29 48 85 119 120 73 -42 -208 -300 -300 -300 -300 -300 -300 -300 -300 -300 -300 -300 -300 -300 -300
-300 -300 -300 -300 -300 -300 -300 -300 -300 -300 -300 -300 -281 -213 -195 -244 -287 -300 -300 -300 -300 -300 -300 -300 -300 -300 -300 -300 -300 -300 -300 -300 -300 -300 -300 -300 -300 -300 -300 -300 -300 -300 -300 -300 -300 -300 -300 -294 -232 -163 -143 -143 -82 -25 52 148 236 383 507 578 622 610 590 644 696 783 759 804 868 847 865 880 871 840 771 810 805 813 835 932 976 938 856 811 781 736 792 803 788 723 624 565 540 494 408 329 243 186 105 -6 -112 -201 -233 -300 -300 -300 -300 -300 -300 -300 -300 -300 -300 -300 -300 -300 -300 -300 -300 -300 -300 -300 -300 -300 -261 -155 -52 18 132 165 171 157 155 64 29 0 51 69 25 0 -4 -72 -84 -54 -64 -99 -172 -146 -173 -266 -300 -300 -300 -300 -300 -300 -300 -300 -300 -300 -300 -300 -300 -300 -300 -300 -300 -300 -300 -300 -300 -300 -300 -300 -300 -300 -300 -300 -300 -300 -271 -215 -158 -114 -44 42 92 109 99 77 56 46 59 114 136 126 64 -15 -129 -216 -282 -277 -300 -300 -300 -300 -300 -300 -300 -300 -300 -300 -300 -300 -300 -300 -300 -300 -300 -300 -300 -240 -206 -155 -147 -95 -83 -9 61 152 158 126 125 86 88 67 106 123 121 61 -79 -264 -300 -300 -300 -300 -300 -300 -300 -300 -300 -300 -300 -300 -300 -300
-300 -300 -300 -300 -300 -300 -300 -300 -300 -300 -300 -300 -293 -226 -199 -245 -300 -300 -300 -300 -300 -300 -300 -300 -300 -300 -300 -300 -300 -300 -300 -300 -300 -300 -300 -300 -300 -300 -300 -300 -300 -300 -300 -300 -300 -300 -300 -243 -166 -155 -125 -105 -121 -64 23 115 204 332 452 512 566 633 685 768 829 863 853 860 902 894 922 967 975 922 936 946 938 932 954 1030 1018 937 879 845 838 816 777 747 747 713 660 557 543 533 421 316 236 190 101 0 -55 -89 -146 -238 -300 -300 -300 -300 -300 -300 -300 -300 -300 -300 -300 -300 -300 -300 -300 -300 -300 -300 -300 -300 -300 -183 -136 3 130 227 195 149 112 58 77 72 113 93 48 43 29 -34 -82 -87 -144 -164 -204 -200 -200 -285 -300 -300 -300 -300 -300 -300 -300 -300 -300 -300 -300 -300 -300 -300 -300 -300 -300 -300 -300 -300 -300 -300 -300 -300 -300 -300 -300 -300 -300 -300 -267 -232 -169 -107 -44 39 60 99 99 57 21 3 -9 19 57 42 4 -117 -178 -259 -276 -291 -300 -300 -300 -300 -300 -300 -300 -300 -300 -300 -300 -300 -300 -300 -300 -300 -300 -300 -289 -245 -213 -154 -101 -38 18 43 116 191 124 111 125 124 101 33 44 79 80 48 -106 -228 -300 -300 -300 -300 -300 -300 -300 -300 -300 -300 -300 -300 -300 -300
-300 -300 -300 -300 -300 -300 -300 -300 -300 -300 -300 -300 -300 -242 -204 -276 -300 -300 -300 -300 -300 -300 -300 -300 -300 -300 -300 -300 -300 -300 -300 -300 -300 -300 -300 -300 -300 -300 -300 -300 -300 -300 -300 -300 -300 -300 -300 -219 -132 -116 -87 -93 -123 -108 -31 46 155 300 386 457 556 662 774 847 903 916 908 931 941 930 936 1009 1042 1041 1049 1092 1092 1077 1067 1098 1065 966 918 903 924 889 791 744 744 695 612 530 531 551 476 376 284 220 139 1 -88 -97 -141 -203 -264 -300 -300 -300 -300 -300 -300 -300 -300 -300 -300 -300 -300 -300 -300 -300 -300 -300 -300 -300 -300 -251 -183 -36 111 209 200 135 127 148 167 181 190 153 113 64 50 -26 -102 -138 -175 -258 -236 -208 -252 -300 -300 -300 -300 -300 -300 -300 -300 -300 -300 -300 -300 -300 -300 -300 -300 -300 -300 -300 -300 -300 -300 -300 -300 -300 -300 -300 -300 -300 -300 -294 -239 -207 -139 -61 -15 39 88 92 84 66 0 -17 -49 -76 -73 -72 -114 -214 -263 -266 -243 -263 -300 -300 -300 -300 -300 -300 -300 -300 -300 -300 -300 -300 -300 -300 -300 -300 -300 -300 -300 -284 -233 -167 -88 23 87 122 147 192 146 95 115 115 44 -24 -10 4 -23 -43 -112 -199 -262 -300 -300 -300 -300 -300 -300 -300 -300 -300 -300 -300 -300 -300
-300 -300 -300 -300 -300 -300 -300 -300 -300 -300 -300 -300 -300 -293 -284 -300 -300 -300 -300 -300 -300 -300 -300 -300 -300 -300 -300 -300 -300 -300 -300 -300 -300 -300 -300 -300 -300 -300 -300 -300 -300 -300 -300 -300 -300 -300 -283 -177 -115 -103 -119 -120 -123 -116 -46 -16 65 224 284 369 549 694 846 907 971 953 937 922 925 960 1017 1098 1138 1172 1146 1198 1207 1168 1172 1151 1125 1022 991 929 914 904 843 746 712 641 569 536 528 534 493 384 273 172 81 -40 -82 -114 -149 -112 -110 -155 -221 -278 -300 -300 -300 -300 -300 -300 -300 -300 -300 -300 -300 -300 -300 -300 -300 -300 -300 -258 -136 -30 65 135 165 165 166 184 201 240 200 152 161 122 77 -2 -76 -175 -219 -285 -255 -292 -300 -300 -300 -300 -300 -300 -300 -300 -300 -300 -300 -300 -300 -300 -300 -300 -300 -300 -300 -300 -300 -300 -300 -300 -300 -300 -300 -300 -300 -300 -300 -291 -264 -194 -131 -25 62 64 84 116 119 84 -24 -58 -139 -161 -159 -160 -192 -273 -300 -300 -300 -300 -300 -300 -300 -300 -300 -300 -300 -300 -300 -300 -300 -300 -300 -300 -300 -300 -279 -275 -243 -248 -199 -99 -19 69 120 164 192 165 160 107 61 11 0 -55 -54 -49 -110 -103 -149 -209 -260 -300 -300 -300 -300 -300 -300 -300 -300 -300 -300 -300 -300 -300
-300 -300 -300 -300 -300 -300 -300 -300 -300 -300 -300 -300 -300 -300 -300 -300 -300 -300 -300 -300 -300 -300 -300 -300 -300 -300 -300 -300 -300 -300 -300 -300 -300 -300 -300 -300 -300 -300 -300 -300 -300 -300 -300 -300 -300 -300 -273 -149 -73 -104 -70 -56 -93 -80 -67 -76 -4 83 211 342 551 685 802 870 954 973 959 913 946 1009 1057 1104 1146 1201 1219 1284 1309 1254 1260 1224 1142 1082 1041 951 900 872 839 748 672 615 577 537 520 542 459 408 298 190 64 -47 -80 -121 -142 -80 3 -60 -130 -186 -300 -300 -300 -300 -300 -300 -300 -300 -300 -300 -300 -300 -300 -300 -300 -300 -300 -256 -165 -52 11 91 140 213 239 238 197 231 187 166 176 117 43 -26 -65 -176 -215 -300 -300 -300 -300 -300 -300 -300 -300 -300 -300 -300 -300 -300 -300 -300 -300 -300 -300 -300 -300 -300 -300 -300 -300 -300 -300 -300 -300 -300 -300 -300 -300 -300 -300 -300 -244 -156 -62 57 133 116 82 85 114 91 2 -130 -205 -229 -209 -201 -233 -287 -300 -300 -300 -300 -300 -300 -300 -300 -300 -300 -300 -300 -300 -300 -300 -300 -300 -300 -300 -300 -279 -239 -206 -210 -123 -78 -31 28 79 59 79 107 112 69 43 9 37 50 -20 -45 -110 -132 -193 -214 -245 -288 -300 -300 -300 -300 -300 -300 -300 -300 -300 -300 -300 -300
-300 -300 -300 -300 -300 -300 -300 -300 -300 -300 -300 -300 -300 -300 -300 -300 -300 -300 -300 -300 -300 -300 -300 -300 -300 -300 -300 -300 -300 -300 -300 -300 -300 -300 -300 -300 -300 -300 -300 -300 -300 -300 -300 -300 -300 -300 -243 -152 -47 -68 -28 5 -53 -106 -93 -108 -34 68 183 281 466 615 694 786 913 950 948 957 986 1021 1036 1062 1120 1183 1231 1307 1353 1330 1301 1266 1173 1097 1059 967 863 787 724 649 578 577 587 571 533 524 453 433 348 223 138 43 14 -76 -124 -62 24 -23 -74 -141 -259 -300 -300 -300 -300 -300 -300 -300 -300 -300 -300 -300 -300 -300 -300 -300 -300 -300 -210 -86 -11 64 143 214 246 206 160 166 123 112 130 114 41 -36 -81 -169 -226 -300 -300 -300 -300 -300 -300 -300 -300 -300 -300 -300 -300 -300 -300 -300 -300 -300 -300 -300 -300 -300 -300 -300 -300 -300 -300 -300 -300 -300 -300 -300 -300 -300 -300 -300 -224 -66 48 139 175 143 119 108 100 61 9 -93 -186 -243 -263 -272 -300 -300 -300 -300 -300 -300 -300 -300 -300 -300 -300 -300 -300 -300 -300 -300 -300 -300 -300 -300 -300 -300 -288 -270 -230 -183 -119 -82 -85 -60 -39 -80 -52 -18 27 37 62 79 78 99 51 -12 -108 -169 -184 -166 -166 -221 -300 -300 -300 -300 -300 -300 -300 -300 -300 -300 -300 -300
-300 -300 -300 -300 -300 -300 -300 -300 -300 -300 -300 -300 -300 -300 -300 -300 -300 -300 -300 -300 -300 -300 -300 -300 -300 -300 -300 -300 -300 -300 -300 -300 -300 -300 -300 -300 -300 -300 -300 -300 -300 -300 -300 -300 -300 -300 -184 -119 -64 -84 -19 7 -45 -64 -54 -83 -50 87 176 321 419 576 691 823 924 989 1002 1010 1078 1090 1101 1084 1098 1152 1205 1267 1293 1322 1301 1239 1143 1067 1004 932 842 736 682 625 554 591 597 586 523 493 484 430 367 294 221 130 44 -40 -83 -19 23 14 -85 -202 -269 -300 -300 -300 -300 -300 -300 -300 -300 -300 -300 -300 -300 -300 -300 -300 -300 -300 -300 -248 -159 -54 99 172 228 222 170 110 51 78 85 63 2 -85 -95 -114 -177 -234 -300 -300 -300 -300 -300 -300 -300 -300 -300 -300 -300 -300 -300 -300 -300 -300 -300 -300 -300 -300 -300 -300 -300 -300 -300 -300 -300 -300 -300 -300 -300 -300 -300 -279 -165 -44 86 141 174 136 115 114 56 27 -48 -82 -141 -211 -283 -300 -300 -279 -299 -297 -300 -298 -300 -300 -300 -300 -300 -300 -300 -300 -300 -300 -300 -300 -300 -300 -300 -300 -285 -293 -288 -197 -174 -135 -146 -161 -153 -193 -154 -120 -49 -8 70 100 127 127 65 -5 -127 -167 -205 -203 -226 -218 -300 -300 -300 -300 -300 -300 -300 -300 -300 -300 -300 -300
-300 -300 -300 -300 -300 -300 -300 -300 -300 -300 -300 -300 -300 -300 -300 -300 -300 -300 -300 -300 -300 -300 -300 -300 -300 -300 -300 -300 -300 -300 -300 -300 -300 -300 -300 -300 -300 -300 -300 -300 -300 -300 -300 -300 -300 -300 -212 -129 -133 -123 -64 -33 -72 -57 -49 -14 -5 111 229 333 449 549 689 814 927 991 1042 1047 1073 1118 1119 1074 1048 1109 1181 1193 1207 1234 1223 1158 1091 1014 982 916 856 746 687 635 635 654 639 562 493 453 447 405 342 303 265 162 55 -21 -44 -1 64 65 -65 -178 -254 -300 -300 -300 -300 -300 -300 -300 -300 -300 -300 -300 -300 -300 -300 -300 -300 -300 -300 -300 -237 -114 43 58 137 164 141 33 -37 1 51 55 -25 -71 -71 -98 -143 -182 -244 -300 -300 -300 -300 -300 -300 -300 -300 -300 -300 -300 -300 -300 -300 -300 -300 -300 -300 -300 -300 -300 -300 -300 -300 -300 -300 -300 -300 -300 -300 -300 -300 -195 -136 -35 82 150 172 179 108 58 18 -71 -133 -95 -103 -189 -298 -300 -300 -279 -247 -277 -300 -300 -298 -300 -300 -300 -300 -300 -300 -300 -300 -300 -300 -300 -300 -300 -300 -280 -290 -300 -300 -286 -256 -184 -155 -233 -270 -282 -238 -163 -140 -75 16 70 64 60 15 -62 -156 -191 -212 -268 -268 -300 -300 -300 -300 -300 -300 -300 -300 -300 -300 -300 -300 -300
-300 -300 -300 -300 -300 -300 -300 -300 -300 -300 -300 -300 -300 -300 -300 -300 -300 -300 -300 -300 -300 -300 -300 -300 -300 -300 -300 -300 -300 -300 -300 -300 -300 -300 -300 -300 -300 -300 -300 -300 -300 -300 -300 -300 -300 -289 -266 -205 -146 -120 -93 -74 -108 -64 -40 22 50 153 243 337 453 550 688 808 943 1010 1049 1056 1045 1088 1069 1025 993 979 1063 1114 1106 1122 1109 1080 1049 973 957 909 864 785 756 691 691 642 628 533 439 385 384 323 278 251 291 221 130 11 -21 50 76 62 -3 -122 -228 -280 -300 -300 -300 -300 -300 -300 -300 -300 -300 -300 -300 -300 -300 -300 -300 -300 -300 -300 -262 -165 -62 -4 31 24 35 -44 -49 0 43 -1 -28 -34 -89 -135 -173 -196 -239 -300 -300 -300 -300 -300 -300 -300 -300 -300 -300 -300 -300 -300 -300 -300 -300 -300 -300 -300 -300 -300 -300 -300 -300 -300 -300 -300 -300 -278 -255 -300 -281 -190 -150 -53 47 112 115 120 15 -56 -81 -127 -215 -186 -180 -249 -300 -300 -300 -300 -276 -250 -223 -232 -265 -300 -300 -300 -300 -300 -300 -300 -300 -300 -300 -300 -300 -300 -300 -275 -300 -300 -300 -300 -242 -214 -194 -259 -300 -300 -286 -215 -204 -150 -70 -15 0 -13 -59 -141 -231 -251 -208 -244 -300 -300 -300 -300 -300 -300 -300 -300 -300 -300 -300 -300 -300 -300
-300 -300 -300 -300 -300 -300 -300 -300 -300 -300 -300 -300 -300 -300 -300 -300 -300 -300 -300 -300 -300 -300 -300 -300 -300 -300 -300 -300 -300 -300 -300 -300 -300 -300 -300 -300 -300 -300 -300 -300 -300 -300 -300 -300 -300 -246 -255 -206 -170 -157 -104 -76 -104 -70 -17 40 99 201 258 352 404 567 715 801 919 1053 1078 1112 1061 1072 1021 982 894 886 956 1000 1017 1040 1025 981 939 906 864 818 808 772 765 728 744 695 644 527 427 343 325 275 254 278 278 239 167 125 96 94 86 32 -32 -85 -192 -268 -300 -300 -300 -300 -300 -300 -300 -300 -300 -300 -300 -300 -300 -300 -300 -300 -300 -296 -257 -191 -154 -105 -81 -33 -46 -105 -108 -65 -30 -42 -77 -72 -92 -144 -138 -168 -218 -300 -300 -300 -300 -300 -300 -300 -300 -300 -300 -300 -300 -300 -300 -300 -300 -300 -300 -300 -300 -300 -300 -300 -300 -300 -290 -238 -220 -174 -153 -175 -217 -206 -122 -62 -9 67 88 74 -54 -144 -185 -225 -233 -244 -225 -259 -300 -300 -300 -300 -289 -222 -201 -200 -291 -300 -300 -300 -300 -300 -300 -300 -300 -300 -300 -300 -300 -300 -300 -300 -300 -300 -300 -300 -300 -280 -274 -300 -300 -300 -300 -298 -268 -222 -195 -98 -58 -92 -117 -172 -268 -273 -268 -245 -293 -300 -300 -300 -300 -300 -300 -300 -300 -300 -300 -300 -300 -300
-300 -300 -300 -300 -300 -300 -300 -300 -300 -300 -300 -300 -300 -300 -300 -300 -300 -300 -300 -300 -300 -300 -300 -300 -300 -300 -300 -300 -300 -300 -300 -300 -300 -300 -300 -300 -300 -300 -300 -300 -300 -300 -300 -300 -278 -169 -168 -179 -186 -147 -148 -118 -93 -92 -42 73 136 177 290 362 415 582 729 828 903 1031 1117 1165 1102 1088 1050 987 866 835 856 873 899 922 925 859 863 838 779 708 745 753 721 714 727 709 610 493 439 354 302 191 194 273 291 232 205 218 204 110 50 -38 -72 -89 -189 -251 -300 -300 -300 -300 -300 -300 -300 -300 -300 -300 -300 -300 -300 -300 -300 -300 -300 -292 -282 -264 -170 -101 -36 -8 -38 -65 -98 -101 -97 -70 -79 -83 -53 -58 -81 -97 -164 -290 -300 -300 -300 -300 -300 -300 -300 -300 -300 -300 -300 -300 -300 -300 -300 -300 -300 -300 -300 -300 -300 -300 -300 -300 -270 -191 -176 -112 -78 -70 -145 -169 -130 -80 -69 -7 -14 -77 -160 -211 -267 -293 -262 -299 -298 -292 -300 -300 -260 -253 -298 -250 -192 -205 -278 -300 -269 -300 -300 -300 -300 -300 -300 -300 -300 -300 -300 -300 -300 -300 -300 -300 -300 -300 -300 -300 -300 -300 -300 -300 -300 -300 -277 -252 -227 -179 -139 -138 -145 -204 -260 -295 -300 -266 -278 -300 -300 -300 -300 -300 -266 -300 -300 -300 -300 -300 -300 -300
-300 -300 -300 -300 -300 -300 -300 -300 -300 -300 -294 -278 -300 -300 -300 -300 -300 -300 -300 -300 -300 -300 -300 -300 -300 -300 -300 -300 -300 -300 -300 -300 -300 -300 -300 -300 -300 -300 -300 -300 -300 -300 -300 -300 -237 -134 -105 -93 -139 -109 -113 -101 -56 -36 -23 89 163 178 309 416 451 551 656 764 821 946 1052 1131 1083 1056 1007 969 878 802 785 802 815 817 794 751 790 756 724 693 699 732 718 653 648 627 581 484 349 266 214 175 146 169 225 208 259 262 234 139 47 -44 -50 -29 -69 -127 -181 -253 -300 -300 -300 -300 -300 -300 -300 -300 -300 -300 -300 -300 -300 -300 -300 -277 -246 -259 -149 -73 -6 2 4 0 -29 -26 -41 -43 -8 0 -5 24 4 -14 -124 -275 -300 -300 -300 -300 -300 -300 -300 -300 -300 -300 -300 -300 -300 -300 -300 -300 -300 -300 -300 -300 -300 -300 -300 -300 -204 -144 -136 -78 -11 23 -45 -85 -70 -61 -77 -69 -72 -140 -153 -150 -200 -250 -290 -300 -300 -300 -300 -300 -232 -232 -261 -244 -233 -213 -249 -232 -231 -280 -278 -277 -288 -300 -300 -300 -300 -300 -300 -300 -300 -300 -300 -300 -300 -300 -300 -300 -300 -300 -300 -300 -292 -257 -260 -279 -251 -248 -209 -191 -180 -178 -215 -290 -300 -298 -300 -300 -300 -283 -300 -213 -172 -205 -236 -264 -300 -300 -300 -300
-300 -300 -300 -300 -300 -300 -300 -300 -300 -300 -278 -254 -265 -298 -300 -293 -300 -300 -300 -300 -300 -300 -300 -300 -300 -300 -300 -300 -300 -300 -300 -300 -300 -300 -300 -300 -300 -300 -300 -300 -300 -300 -300 -300 -193 -106 -65 -29 -15 -59 -63 -41 -28 -9 -26 36 124 199 296 361 423 504 594 713 778 892 995 1056 1069 973 945 920 873 811 779 778 777 726 719 707 729 721 669 671 670 655 639 613 602 592 528 414 302 225 215 180 182 160 191 227 268 318 237 148 81 16 26 -1 -6 -40 -55 -171 -300 -300 -300 -300 -300 -300 -300 -300 -300 -300 -300 -300 -300 -300 -300 -205 -193 -180 -115 -26 49 83 101 97 63 34 -2 1 42 14 17 2 -19 -15 -132 -274 -300 -300 -300 -300 -300 -300 -300 -300 -300 -300 -300 -300 -300 -300 -300 -300 -300 -300 -300 -300 -300 -300 -300 -246 -162 -126 -82 -34 34 72 51 4 14 20 -15 -48 -100 -152 -125 -99 -156 -217 -296 -300 -300 -300 -300 -249 -185 -172 -181 -221 -206 -178 -197 -196 -229 -252 -265 -225 -275 -300 -300 -300 -300 -300 -300 -300 -300 -300 -300 -300 -300 -300 -300 -300 -300 -300 -300 -300 -237 -237 -256 -284 -260 -260 -253 -201 -187 -158 -179 -215 -228 -263 -274 -300 -248 -221 -218 -149 -119 -104 -154 -169 -235 -300 -300 -300
-300 -300 -300 -300 -300 -300 -300 -285 -281 -246 -236 -220 -265 -273 -257 -231 -291 -300 -300 -300 -300 -300 -300 -300 -300 -300 -300 -300 -300 -300 -263 -241 -264 -264 -300 -300 -300 -300 -300 -300 -300 -300 -300 -271 -168 -104 -36 51 117 107 87 60 71 21 -32 8 70 206 300 298 372 479 563 666 738 840 921 977 985 911 829 797 828 815 786 725 701 637 631 657 633 661 663 648 593 580 574 554 546 574 496 409 338 261 259 252 259 193 169 208 278 324 306 221 143 138 99 45 15 -24 -50 -139 -209 -258 -300 -300 -300 -300 -300 -300 -300 -300 -300 -300 -300 -300 -267 -210 -170 -164 -97 -4 54 116 162 158 112 76 16 34 49 18 -30 -15 -13 -54 -109 -228 -300 -300 -300 -300 -300 -300 -300 -300 -300 -300 -300 -300 -300 -300 -300 -300 -300 -300 -300 -300 -300 -300 -281 -186 -125 -90 -63 -51 36 77 87 67 29 52 44 -17 -87 -117 -101 -122 -178 -199 -256 -294 -288 -300 -264 -215 -148 -107 -99 -136 -158 -160 -164 -215 -279 -284 -224 -209 -226 -265 -300 -300 -300 -263 -300 -296 -285 -300 -300 -300 -300 -300 -300 -300 -300 -300 -300 -260 -189 -245 -288 -262 -234 -223 -221 -178 -193 -158 -128 -134 -165 -222 -228 -222 -137 -127 -145 -65 -42 -72 -112 -146 -174 -234 -300 -300
-300 -300 -300 -300 -300 -300 -276 -228 -148 -123 -168 -187 -209 -198 -223 -199 -246 -257 -300 -300 -300 -300 -300 -282 -249 -240 -269 -233 -207 -149 -123 -118 -149 -194 -269 -300 -300 -300 -284 -263 -279 -264 -250 -224 -132 -71 -13 70 160 179 142 114 145 91 2 47 131 235 271 319 391 469 560 649 723 831 899 924 899 820 761 692 719 709 709 668 634 591 578 594 525 551 583 579 549 533 468 442 431 479 469 433 329 302 341 319 278 161 131 159 229 273 317 281 178 200 186 119 61 52 -9 -110 -183 -250 -300 -300 -300 -300 -300 -300 -300 -300 -300 -300 -300 -300 -230 -219 -231 -184 -66 19 58 115 164 186 188 170 100 94 79 51 -23 -10 -25 -39 -89 -245 -300 -300 -300 -300 -300 -300 -300 -300 -300 -300 -300 -300 -300 -300 -300 -300 -300 -300 -300 -300 -300 -300 -282 -207 -172 -137 -114 -77 -14 11 54 58 20 45 63 8 -39 -61 -57 -109 -169 -212 -242 -290 -299 -300 -264 -230 -173 -119 -111 -126 -150 -177 -190 -220 -266 -260 -203 -196 -154 -123 -174 -219 -253 -226 -228 -233 -222 -237 -300 -300 -300 -300 -300 -300 -300 -300 -300 -246 -210 -240 -257 -242 -197 -187 -206 -159 -181 -173 -124 -133 -154 -197 -183 -152 -52 -30 -83 -32 0 -87 -121 -135 -117 -196 -268 -300
-300 -300 -239 -203 -191 -243 -213 -158 -80 -51 -62 -110 -128 -107 -125 -134 -178 -189 -209 -270 -277 -229 -195 -181 -156 -168 -200 -152 -111 -47 4 26 -11 -73 -120 -231 -284 -228 -201 -179 -190 -198 -221 -194 -156 -78 -16 83 190 240 234 246 204 134 72 63 125 189 271 330 374 473 545 590 669 778 811 837 810 732 674 634 608 637 596 586 542 499 492 516 467 491 525 509 471 458 410 354 345 376 419 376 354 365 374 366 286 178 124 173 184 246 317 308 261 245 213 148 122 103 15 -93 -193 -180 -242 -300 -300 -300 -300 -300 -300 -300 -300 -300 -300 -300 -263 -253 -258 -230 -70 19 80 173 233 215 246 241 206 161 108 50 -13 29 -5 -47 -163 -249 -300 -300 -300 -300 -300 -300 -300 -300 -300 -300 -300 -300 -300 -300 -300 -300 -300 -300 -300 -300 -300 -300 -252 -220 -218 -181 -179 -122 -74 -24 34 68 33 94 94 79 -22 -36 -100 -153 -186 -218 -241 -300 -300 -272 -228 -187 -117 -132 -130 -147 -148 -164 -211 -266 -278 -254 -199 -157 -80 -11 -30 -141 -226 -175 -159 -167 -162 -202 -287 -300 -300 -300 -300 -300 -300 -300 -238 -192 -152 -134 -174 -150 -132 -111 -144 -153 -120 -97 -76 -88 -117 -90 -81 -49 -24 -6 -13 -34 -51 -77 -143 -157 -151 -167 -187 -242
-300 -285 -246 -198 -125 -125 -119 -59 16 7 -8 -43 -51 -29 -59 -44 -61 -94 -87 -124 -156 -137 -130 -86 -77 -143 -162 -138 -53 26 111 81 61 26 -60 -124 -138 -116 -103 -104 -165 -180 -172 -194 -197 -150 -46 105 177 217 264 315 263 210 104 51 56 117 194 295 354 398 453 509 557 650 687 742 722 676 588 567 565 527 498 495 476 452 419 400 367 398 408 370 382 416 405 342 298 281 314 307 337 368 374 355 306 228 125 157 189 192 255 318 280 256 212 173 136 113 52 -27 -87 -93 -193 -269 -272 -254 -299 -300 -300 -278 -266 -288 -232 -201 -200 -194 -184 -168 -73 48 134 219 275 260 265 230 222 193 89 25 -29 -5 -36 -79 -214 -295 -300 -300 -300 -300 -300 -300 -300 -300 -300 -300 -300 -300 -300 -300 -300 -300 -300 -300 -300 -300 -300 -300 -271 -230 -216 -205 -180 -147 -109 -32 8 72 83 114 124 91 -15 -86 -204 -216 -208 -185 -210 -297 -300 -269 -192 -132 -84 -117 -147 -171 -144 -150 -200 -239 -226 -178 -164 -116 -34 -14 -9 -80 -113 -88 -108 -126 -174 -262 -300 -300 -300 -300 -300 -300 -300 -266 -200 -152 -121 -88 -87 -75 -74 -61 -78 -112 -58 -41 -71 -74 -52 10 52 48 27 -5 -7 -30 -47 -34 -84 -153 -165 -118 -131 -202
-300 -288 -263 -200 -103 -43 -13 35 83 51 36 -23 -38 0 0 -31 -20 -50 -57 -87 -99 -94 -110 -95 -71 -90 -115 -112 -5 73 172 140 108 44 -1 -43 -101 -69 -55 -55 -124 -136 -133 -157 -157 -86 0 155 253 253 320 342 265 166 86 91 108 151 139 172 280 358 387 471 508 585 638 661 602 565 521 498 499 484 475 451 393 372 323 286 272 235 254 236 269 354 338 272 209 185 214 219 242 266 291 333 280 201 150 167 185 197 238 259 229 254 219 207 145 141 120 67 25 -9 -52 -117 -144 -122 -173 -207 -211 -184 -162 -156 -104 -122 -131 -113 -62 -32 -5 56 146 206 248 241 256 254 243 190 90 31 -42 -76 -113 -140 -240 -296 -300 -300 -300 -300 -300 -300 -300 -300 -300 -300 -300 -300 -300 -300 -300 -300 -300 -300 -300 -300 -300 -300 -300 -262 -203 -187 -166 -174 -205 -130 -69 -48 -9 22 80 57 -45 -115 -205 -205 -205 -206 -264 -300 -300 -300 -207 -122 -92 -130 -183 -204 -175 -161 -169 -184 -185 -142 -137 -125 -111 -58 -25 -62 -88 -105 -127 -206 -297 -300 -300 -300 -300 -300 -300 -300 -300 -272 -228 -139 -110 -112 -62 -55 -20 20 21 -47 -4 28 -32 -26 16 76 128 111 75 36 16 12 -15 -9 -77 -137 -153 -135 -124 -183
-300 -270 -267 -200 -75 14 20 42 85 71 26 3 38 7 9 -10 -5 -47 -64 -101 -113 -113 -138 -117 -83 -71 -80 -61 23 119 161 109 74 80 83 -3 -56 -21 -17 6 -40 -52 -61 -71 -30 4 42 182 248 304 326 333 214 123 59 75 101 152 95 99 190 285 329 391 465 527 565 571 532 516 497 462 408 396 382 366 343 315 270 214 160 121 88 147 215 289 248 174 125 92 113 108 98 126 143 206 240 187 180 181 176 205 217 232 228 216 221 211 138 152 200 164 128 121 87 13 8 20 -30 -58 -86 -63 -41 9 0 -34 -28 34 73 95 65 129 193 203 214 264 216 188 196 138 95 37 -22 -119 -151 -201 -228 -300 -300 -300 -300 -300 -300 -300 -300 -300 -300 -300 -300 -300 -300 -300 -300 -300 -300 -300 -300 -300 -300 -300 -300 -300 -257 -213 -234 -271 -295 -256 -219 -196 -135 -81 -39 -22 -64 -127 -219 -235 -266 -270 -293 -300 -300 -300 -239 -148 -104 -166 -205 -228 -218 -199 -148 -168 -163 -139 -164 -161 -142 -98 -50 -59 -108 -166 -195 -300 -300 -300 -300 -300 -300 -300 -300 -300 -300 -271 -221 -186 -135 -151 -89 -49 15 53 71 12 -4 -2 16 45 109 111 181 171 102 88 79 79 79 28 2 -68 -76 -100 -108 -168
-300 -300 -281 -156 -82 -19 16 0 9 7 -2 54 73 45 46 3 16 -13 -43 -63 -96 -100 -143 -121 -85 -60 -26 -2 64 79 102 146 103 124 110 55 65 79 78 94 89 73 12 -24 19 78 48 136 174 221 238 263 163 73 63 75 87 137 99 76 101 150 269 339 392 425 436 458 468 510 452 367 297 274 241 221 228 228 222 178 126 78 22 85 118 154 161 103 33 -67 -72 -83 -26 32 61 96 160 154 183 190 206 195 209 232 208 172 188 228 208 166 215 230 237 208 130 108 149 153 94 74 54 83 122 166 131 89 41 119 196 208 182 184 236 268 262 304 250 205 201 110 68 41 14 -92 -158 -215 -268 -300 -300 -300 -300 -300 -300 -300 -300 -300 -300 -300 -300 -300 -300 -300 -300 -300 -300 -300 -300 -300 -300 -300 -300 -300 -300 -300 -300 -300 -300 -300 -300 -298 -188 -166 -165 -150 -159 -181 -220 -261 -299 -289 -300 -300 -300 -300 -251 -156 -122 -161 -233 -275 -266 -237 -185 -198 -206 -172 -148 -125 -95 -65 -7 -26 -75 -190 -290 -300 -300 -300 -300 -300 -300 -300 -300 -300 -300 -287 -167 -144 -186 -193 -118 -53 60 121 103 80 78 63 94 149 237 216 181 186 146 77 102 128 103 53 73 78 59 13 -29 -82
-265 -277 -288 -221 -137 -76 -65 -63 -37 8 -22 9 -1 11 -37 -44 -28 -28 -58 -68 -90 -57 -85 -77 -58 -42 5 24 46 67 124 175 132 161 156 130 122 114 159 144 135 87 42 28 76 110 89 151 179 154 179 194 164 90 88 39 53 97 91 95 62 94 159 210 314 354 364 338 352 416 376 315 254 232 187 179 201 145 124 114 47 9 -18 21 64 19 30 -2 -85 -152 -156 -184 -133 -50 -7 22 101 127 166 199 179 207 252 252 204 165 201 240 234 251 256 255 245 195 165 151 227 255 225 223 175 209 215 254 249 179 129 204 226 232 259 292 303 318 289 301 251 226 214 110 33 26 18 -41 -115 -195 -299 -300 -300 -300 -300 -300 -300 -300 -300 -300 -300 -300 -300 -300 -300 -300 -300 -300 -300 -300 -300 -300 -300 -300 -300 -300 -300 -300 -300 -300 -300 -300 -300 -300 -288 -280 -297 -286 -244 -268 -233 -261 -271 -300 -300 -300 -300 -300 -260 -177 -189 -202 -250 -279 -265 -208 -197 -202 -243 -217 -199 -166 -147 -101 -8 -3 -45 -179 -244 -249 -300 -276 -300 -300 -300 -300 -300 -300 -300 -265 -156 -151 -146 -160 -129 -48 60 111 103 142 134 189 192 254 271 246 233 197 147 119 137 136 136 121 179 206 105 31 -24 -57
-219 -224 -277 -259 -208 -126 -104 -123 -90 -19 -14 -39 -96 -78 -136 -113 -110 -69 -48 -68 -69 -70 -19 11 0 14 43 90 64 100 142 182 176 182 198 181 183 151 188 193 160 143 98 66 110 129 146 157 132 120 130 105 88 49 38 39 25 61 107 97 23 2 15 87 195 277 262 212 233 313 287 211 203 201 144 133 129 66 44 27 -4 -73 -82 -87 -59 -63 -75 -135 -244 -269 -255 -231 -186 -104 -63 -62 -24 65 130 156 168 193 253 252 234 195 216 222 263 297 303 276 252 254 233 262 336 398 379 346 297 297 310 327 289 252 254 264 305 325 362 395 386 353 303 286 304 294 241 155 64 39 3 -49 -117 -180 -292 -300 -300 -300 -300 -300 -300 -300 -300 -300 -300 -300 -300 -300 -300 -300 -300 -300 -300 -300 -300 -300 -300 -300 -300 -300 -300 -300 -300 -300 -300 -300 -300 -300 -300 -300 -300 -300 -300 -300 -252 -234 -283 -300 -300 -300 -300 -300 -263 -214 -227 -212 -292 -282 -260 -229 -196 -213 -216 -256 -235 -203 -176 -85 -22 2 -47 -132 -196 -195 -227 -217 -250 -269 -300 -300 -300 -300 -300 -291 -216 -150 -159 -161 -171 -71 9 95 132 175 201 274 292 324 310 260 257 218 150 151 185 158 165 236 270 263 191 44 -18 -9
-128 -123 -185 -204 -230 -207 -141 -127 -110 -122 -99 -131 -157 -100 -99 -126 -169 -165 -133 -131 -71 -81 -17 20 35 66 84 130 104 113 126 195 194 204 246 250 258 227 239 243 271 277 210 190 220 241 214 127 63 78 40 56 38 5 -41 -50 7 23 51 9 -75 -61 -71 -35 19 127 124 120 131 195 186 80 60 74 44 64 59 26 -38 -78 -112 -143 -152 -195 -205 -197 -228 -281 -300 -300 -300 -300 -300 -236 -203 -136 -112 -51 35 74 98 108 174 212 212 166 180 202 307 356 363 353 324 341 310 338 384 431 438 412 363 367 387 416 360 351 318 309 394 479 526 473 431 404 391 342 347 377 309 189 103 66 43 -35 -96 -201 -300 -300 -300 -300 -300 -300 -300 -300 -300 -300 -300 -300 -300 -300 -300 -300 -300 -300 -300 -300 -300 -300 -300 -300 -300 -300 -300 -300 -300 -300 -300 -300 -300 -300 -300 -300 -300 -300 -300 -300 -276 -299 -300 -300 -300 -300 -300 -300 -300 -240 -241 -228 -218 -213 -240 -265 -237 -194 -127 -152 -192 -157 -104 -75 -55 -33 -67 -125 -199 -215 -262 -266 -273 -300 -300 -300 -300 -300 -300 -276 -252 -208 -207 -185 -190 -106 -7 118 151 217 276 327 341 314 333 322 326 264 201 131 199 231 246 309 317 314 276 141 10 -6
-130 -101 -104 -138 -161 -218 -162 -123 -173 -175 -152 -148 -142 -87 -64 -93 -115 -159 -205 -176 -156 -96 -61 16 91 113 109 159 101 70 101 163 177 212 254 320 324 310 292 317 361 325 278 302 269 275 188 75 -20 0 -12 -2 -42 -40 -45 -58 -3 25 52 -34 -99 -118 -99 -109 -73 -36 -10 -38 6 61 46 -1 -59 -46 -103 -115 -105 -73 -84 -122 -174 -217 -260 -300 -300 -300 -300 -300 -300 -300 -300 -300 -300 -300 -279 -228 -148 -89 -26 1 50 73 128 169 171 160 158 204 251 285 309 323 339 384 369 397 401 470 501 484 456 455 490 488 442 445 432 482 547 621 615 549 458 452 434 360 365 343 318 223 165 126 37 -94 -149 -267 -300 -300 -300 -300 -300 -300 -300 -300 -300 -300 -300 -300 -300 -300 -300 -300 -300 -300 -300 -300 -300 -300 -300 -300 -300 -300 -300 -300 -300 -300 -300 -300 -300 -300 -300 -300 -300 -300 -300 -300 -300 -300 -300 -300 -300 -300 -300 -300 -258 -221 -182 -163 -159 -238 -275 -300 -267 -204 -141 -89 -143 -122 -117 -83 -113 -99 -136 -168 -222 -249 -288 -299 -258 -300 -300 -300 -300 -300 -300 -300 -274 -285 -256 -208 -163 -84 31 108 138 179 216 235 279 264 287 306 325 276 253 202 244 279 289 273 290 316 311 176 32 2
-173 -132 -119 -114 -153 -155 -127 -135 -194 -193 -171 -135 -99 -67 -24 -28 -18 -105 -170 -150 -152 -123 -82 30 94 75 90 107 86 63 150 218 223 232 265 333 365 389 337 363 403 378 367 313 239 238 145 46 -25 -16 -46 -77 -42 -39 -47 -45 -24 44 44 -48 -127 -159 -143 -183 -152 -124 -130 -145 -118 -74 -83 -99 -159 -166 -250 -264 -275 -199 -163 -188 -211 -273 -300 -300 -300 -300 -300 -300 -300 -300 -300 -300 -300 -300 -300 -259 -159 -126 -86 -38 12 67 105 150 124 135 132 160 165 217 242 273 336 356 386 401 400 474 538 569 584 581 612 609 583 570 603 609 641 705 663 561 459 435 404 342 313 325 306 253 211 184 25 -138 -215 -300 -300 -300 -300 -300 -300 -300 -300 -300 -300 -300 -300 -300 -300 -300 -300 -300 -300 -300 -300 -300 -300 -300 -300 -300 -300 -300 -300 -300 -300 -300 -300 -300 -300 -300 -300 -300 -300 -300 -300 -300 -300 -300 -300 -300 -300 -300 -300 -283 -195 -151 -134 -134 -166 -231 -258 -300 -269 -211 -109 -81 -102 -141 -141 -158 -178 -146 -149 -196 -244 -274 -300 -300 -300 -300 -300 -300 -300 -300 -300 -300 -300 -300 -244 -193 -151 -40 48 94 112 116 152 177 212 192 194 227 294 321 329 287 292 264 270 226 270 316 284 185 70 -31
-124 -92 -102 -90 -119 -69 -83 -123 -179 -221 -192 -99 -39 -44 13 18 31 -76 -129 -110 -107 -105 -60 15 94 139 135 100 63 71 197 255 270 285 310 378 431 447 373 400 486 486 423 338 238 196 140 76 0 11 -38 -74 -2 -14 -55 -54 -57 -20 -56 -73 -124 -161 -173 -227 -196 -198 -236 -274 -266 -217 -211 -213 -264 -281 -300 -300 -300 -234 -189 -227 -262 -300 -300 -300 -300 -300 -300 -300 -300 -300 -300 -300 -300 -300 -300 -262 -181 -188 -156 -71 7 108 134 126 112 140 137 145 140 182 231 280 334 345 401 390 370 413 476 561 619 611 617 593 589 615 669 653 659 655 583 519 434 419 364 335 349 379 361 327 267 227 80 -123 -248 -300 -300 -300 -300 -300 -300 -300 -300 -300 -300 -300 -300 -300 -300 -300 -300 -300 -300 -300 -300 -300 -300 -300 -300 -300 -300 -300 -300 -300 -300 -300 -300 -300 -300 -300 -300 -300 -300 -300 -300 -300 -300 -300 -300 -300 -300 -300 -300 -243 -166 -139 -94 -56 -67 -113 -199 -262 -240 -181 -88 -101 -112 -167 -152 -198 -212 -202 -194 -247 -275 -258 -287 -300 -300 -300 -300 -300 -300 -300 -300 -300 -300 -300 -281 -174 -96 -36 5 58 77 63 137 209 242 211 164 175 220 284 340 330 324 274 276 247 283 328 267 200 124 0
-145 -123 -109 -67 -46 -32 -72 -119 -192 -198 -186 -105 -77 -73 -16 23 38 -25 -41 12 41 1 28 95 113 146 150 115 141 160 249 267 281 355 419 438 484 478 450 451 513 487 471 393 239 149 108 45 37 18 9 -4 -52 -83 -106 -96 -98 -107 -94 -79 -100 -153 -182 -232 -232 -257 -300 -300 -300 -300 -300 -300 -300 -300 -300 -300 -300 -285 -238 -251 -266 -300 -300 -300 -300 -300 -300 -300 -300 -300 -300 -300 -300 -300 -300 -221 -180 -168 -177 -93 25 138 213 185 199 175 180 161 136 220 265 278 308 357 419 393 390 401 457 565 631 649 606 563 544 581 651 687 654 563 558 492 418 387 341 333 345 368 356 342 329 221 86 -67 -215 -300 -300 -300 -300 -300 -300 -300 -300 -300 -300 -300 -300 -300 -300 -300 -300 -300 -300 -300 -300 -300 -300 -300 -300 -300 -300 -300 -300 -300 -300 -300 -300 -300 -300 -300 -300 -300 -300 -300 -300 -300 -300 -300 -300 -300 -300 -300 -287 -176 -104 -59 3 24 49 -15 -95 -171 -210 -157 -112 -144 -174 -208 -189 -211 -208 -180 -147 -230 -261 -270 -242 -283 -300 -300 -300 -300 -300 -300 -300 -300 -300 -300 -300 -237 -144 -105 -56 31 70 101 144 224 218 249 251 234 229 278 334 396 350 330 305 300 313 348 306 235 141 47
-205 -159 -87 -22 0 -12 -34 -86 -152 -159 -148 -103 -111 -127 -70 21 60 37 57 97 137 101 136 170 138 124 131 156 182 204 268 279 264 359 476 500 555 534 529 528 525 502 483 433 296 197 107 46 32 58 42 6 -76 -125 -177 -134 -95 -92 -45 -35 -50 -122 -146 -217 -288 -300 -300 -300 -300 -300 -300 -300 -300 -300 -300 -300 -300 -300 -296 -293 -289 -300 -300 -300 -300 -300 -300 -300 -300 -300 -300 -300 -300 -300 -300 -241 -160 -141 -163 -117 -5 155 262 244 229 218 260 236 201 223 244 277 295 331 402 379 380 385 483 604 640 618 571 497 487 559 625 658 610 545 531 479 431 397 385 354 308 371 366 379 333 243 139 4 -185 -300 -300 -300 -300 -300 -300 -300 -300 -300 -300 -300 -300 -300 -300 -300 -300 -300 -300 -300 -300 -300 -300 -300 -300 -300 -300 -300 -300 -300 -300 -300 -300 -300 -300 -300 -300 -300 -300 -300 -284 -300 -300 -300 -300 -300 -300 -300 -226 -81 0 6 79 139 111 38 -26 -88 -127 -106 -122 -172 -279 -300 -259 -253 -234 -178 -124 -172 -255 -274 -250 -228 -273 -300 -300 -300 -279 -300 -300 -300 -300 -300 -300 -300 -220 -139 -86 -19 51 112 160 242 263 284 294 265 244 293 367 415 413 369 338 298 300 319 326 259 164 89
-197 -173 -68 15 44 38 -3 -40 -78 -100 -99 -96 -91 -95 -25 29 74 98 149 182 209 147 201 208 174 153 185 270 300 262 279 276 269 393 510 530 561 514 537 531 525 535 493 425 292 160 50 26 34 98 63 38 -48 -125 -220 -190 -125 -124 -88 -61 -29 -78 -145 -230 -292 -300 -300 -300 -300 -300 -300 -300 -300 -300 -300 -300 -300 -300 -297 -300 -300 -300 -300 -300 -300 -300 -300 -300 -300 -300 -300 -300 -300 -300 -300 -212 -104 -101 -91 -66 39 162 261 289 291 291 316 319 296 270 245 281 321 313 335 359 403 490 571 631 660 632 605 534 494 474 538 570 582 538 488 415 399 364 376 377 370 387 375 397 341 267 122 22 -170 -300 -300 -300 -300 -300 -300 -300 -300 -300 -300 -300 -300 -300 -300 -300 -300 -300 -300 -300 -300 -300 -300 -300 -300 -300 -300 -300 -300 -300 -300 -300 -300 -300 -300 -300 -300 -300 -300 -300 -265 -250 -225 -222 -212 -231 -248 -161 -86 -16 21 81 115 163 171 109 25 -34 -79 -126 -215 -232 -292 -300 -300 -286 -247 -177 -134 -102 -157 -195 -197 -226 -254 -294 -300 -300 -274 -259 -256 -300 -300 -300 -300 -285 -208 -158 -84 -65 4 104 195 249 292 336 379 346 328 334 355 401 470 416 398 370 369 352 395 303 208 120
-148 -151 -49 -4 32 34 21 4 9 -25 -5 -51 -35 0 6 61 102 151 167 214 233 240 273 288 292 285 276 342 334 325 289 317 317 370 466 524 557 508 541 538 529 507 463 396 258 159 121 83 73 125 65 15 -3 -57 -160 -200 -182 -129 -156 -149 -77 -118 -193 -237 -300 -300 -300 -300 -300 -300 -300 -300 -300 -300 -300 -300 -300 -300 -300 -300 -300 -300 -300 -300 -300 -300 -300 -300 -300 -300 -300 -300 -300 -300 -300 -229 -182 -143 -106 -82 45 152 231 243 261 248 289 374 374 344 316 366 368 383 353 380 442 549 593 611 629 630 605 580 520 516 499 519 492 468 429 398 341 348 396 419 399 417 426 458 382 286 117 -14 -128 -272 -300 -300 -300 -300 -300 -300 -300 -300 -300 -300 -300 -300 -300 -300 -300 -300 -300 -300 -300 -300 -300 -300 -300 -300 -300 -300 -300 -300 -300 -300 -300 -300 -300 -300 -300 -300 -300 -300 -300 -215 -160 -133 -110 -125 -110 8 58 57 98 134 128 137 154 80 17 -55 -99 -163 -259 -292 -300 -300 -300 -292 -263 -212 -159 -114 -136 -200 -186 -216 -271 -263 -294 -292 -248 -229 -255 -300 -300 -300 -284 -294 -225 -188 -154 -116 -28 75 189 258 305 340 364 337 314 351 367 399 467 436 422 447 446 422 430 367 221 170
-68 -96 -41 -2 11 12 41 34 46 16 50 33 38 52 73 75 94 153 170 216 255 293 335 397 415 378 371 390 310 312 302 348 350 358 411 480 514 515 540 504 470 441 390 375 283 172 172 113 106 121 52 40 83 16 -50 -118 -157 -171 -252 -248 -177 -169 -257 -300 -300 -300 -300 -300 -300 -300 -300 -300 -300 -300 -300 -300 -300 -300 -300 -300 -300 -300 -300 -300 -300 -300 -300 -300 -300 -300 -300 -300 -300 -300 -300 -292 -262 -211 -191 -156 -31 84 132 177 205 198 257 347 399 432 412 406 394 416 383 452 533 570 568 560 600 616 594 567 564 571 528 499 423 416 432 418 386 405 392 410 410 464 488 528 407 289 159 38 -50 -176 -300 -300 -300 -300 -300 -300 -300 -300 -300 -300 -300 -300 -300 -300 -300 -300 -300 -300 -300 -300 -300 -300 -300 -300 -300 -300 -300 -300 -300 -300 -300 -300 -300 -300 -300 -300 -300 -300 -300 -255 -176 -133 -79 -59 -31 70 164 192 210 170 140 151 128 35 -55 -91 -126 -249 -298 -296 -298 -300 -300 -286 -278 -243 -170 -102 -109 -196 -198 -235 -273 -253 -218 -212 -203 -171 -214 -270 -289 -300 -300 -268 -191 -175 -162 -118 -42 67 193 216 252 305 306 289 301 356 391 403 438 414 412 439 438 451 472 437 311 254
-70 -84 -77 -94 -71 -33 -12 2 46 69 104 104 144 95 75 87 81 142 209 237 281 322 397 432 476 464 440 415 344 327 299 300 298 271 326 440 468 462 467 460 456 434 416 377 302 278 296 187 108 68 30 13 105 77 -2 -115 -131 -191 -232 -278 -287 -300 -300 -300 -300 -300 -300 -300 -300 -300 -300 -300 -300 -300 -300 -300 -300 -300 -300 -300 -300 -300 -300 -300 -300 -300 -300 -300 -300 -300 -300 -300 -300 -300 -300 -294 -284 -265 -254 -198 -60 70 66 113 163 156 241 324 432 458 467 447 427 472 478 524 615 655 652 655 647 675 671 676 717 654 579 555 485 427 449 460 473 484 436 433 458 503 501 493 404 296 175 71 11 -106 -285 -300 -300 -300 -300 -300 -300 -300 -300 -300 -300 -300 -300 -300 -300 -300 -300 -300 -300 -300 -300 -300 -300 -300 -300 -300 -300 -300 -300 -300 -300 -300 -300 -300 -300 -300 -300 -300 -300 -278 -178 -126 -49 -3 85 132 187 245 235 220 184 162 112 37 -80 -148 -187 -245 -296 -292 -279 -284 -293 -262 -267 -224 -208 -156 -182 -243 -265 -300 -300 -264 -237 -195 -199 -196 -208 -224 -241 -300 -263 -193 -140 -160 -156 -112 -51 30 124 202 222 262 268 310 310 326 390 431 397 415 419 424 412 431 449 478 448 363
-179 -137 -152 -125 -104 -80 -62 -25 40 99 127 118 153 98 59 82 117 175 293 319 307 302 374 412 437 419 429 385 323 333 291 241 201 200 299 433 450 425 407 416 447 456 469 424 386 386 296 182 104 59 62 48 84 55 -51 -150 -186 -216 -263 -300 -300 -300 -300 -300 -300 -300 -300 -300 -300 -300 -300 -300 -300 -300 -300 -300 -300 -300 -300 -300 -300 -300 -300 -286 -300 -300 -300 -300 -300 -300 -300 -300 -300 -300 -300 -300 -300 -290 -278 -185 -84 29 66 119 159 149 229 357 440 448 420 464 465 499 540 578 635 693 731 745 756 750 784 836 797 711 654 606 557 472 476 505 546 580 527 453 494 519 468 464 416 280 177 135 19 -66 -186 -297 -300 -300 -300 -300 -300 -300 -300 -300 -300 -300 -300 -300 -300 -300 -300 -300 -300 -300 -300 -300 -300 -300 -300 -300 -300 -300 -300 -300 -300 -300 -300 -300 -277 -300 -300 -300 -300 -233 -141 -74 -45 52 135 211 192 197 239 227 191 171 113 69 -74 -172 -216 -257 -296 -252 -249 -260 -253 -287 -293 -234 -217 -252 -262 -287 -300 -300 -300 -300 -258 -226 -211 -242 -219 -239 -255 -268 -195 -93 -36 -43 -68 -72 -53 14 119 235 238 258 281 337 295 298 371 431 378 371 409 401 381 390 434 495 490 446
-280 -213 -190 -186 -131 -97 -86 -53 9 81 132 148 108 65 95 116 160 221 330 336 372 352 391 337 328 343 340 299 287 263 198 148 133 178 266 397 430 442 422 424 421 428 447 477 480 469 332 221 140 120 131 137 136 80 -42 -175 -279 -300 -300 -300 -300 -300 -300 -300 -300 -300 -300 -300 -300 -300 -300 -300 -300 -300 -300 -300 -300 -300 -300 -300 -300 -300 -300 -297 -300 -300 -300 -300 -300 -300 -300 -300 -300 -300 -300 -300 -300 -300 -300 -216 -98 -3 33 63 150 174 252 390 463 484 432 441 521 542 510 567 651 747 784 784 784 796 858 875 834 788 727 652 620 511 483 485 543 614 559 466 484 503 460 451 416 295 225 211 106 17 -67 -186 -298 -300 -300 -300 -300 -300 -300 -300 -300 -300 -300 -300 -300 -300 -300 -300 -300 -300 -300 -300 -300 -300 -300 -300 -300 -300 -300 -300 -300 -300 -300 -299 -235 -256 -300 -300 -270 -202 -119 -51 -23 77 160 248 249 242 285 247 176 118 103 91 -10 -128 -172 -216 -300 -291 -292 -299 -295 -300 -300 -300 -265 -300 -281 -300 -300 -300 -300 -300 -242 -203 -207 -247 -239 -241 -244 -189 -96 15 70 24 -3 -6 14 59 138 194 193 210 242 289 296 292 357 373 346 363 346 325 310 315 360 459 484 464
-300 -300 -234 -207 -188 -164 -132 -93 -16 51 91 85 55 56 76 128 182 247 388 406 413 387 336 287 253 273 317 267 227 191 125 68 52 110 240 333 394 415 394 389 387 397 456 514 494 450 311 225 163 134 131 157 125 63 -59 -227 -300 -300 -300 -300 -300 -300 -300 -300 -300 -300 -300 -300 -300 -300 -300 -300 -300 -300 -300 -300 -300 -300 -300 -300 -300 -300 -292 -255 -300 -300 -300 -300 -300 -300 -300 -300 -300 -300 -300 -300 -300 -300 -275 -205 -97 -26 11 55 129 145 215 341 422 472 483 487 534 545 572 605 685 770 827 827 861 873 911 913 899 846 800 704 628 551 494 520 561 579 520 458 423 388 398 372 354 300 252 196 122 65 40 -79 -243 -300 -300 -300 -300 -300 -300 -300 -300 -300 -300 -300 -300 -300 -300 -300 -300 -300 -300 -300 -300 -300 -300 -300 -300 -300 -300 -300 -300 -300 -300 -244 -191 -202 -236 -277 -251 -179 -84 -50 -3 54 169 272 284 272 288 242 193 121 110 79 9 -108 -133 -207 -279 -275 -271 -247 -264 -300 -300 -300 -300 -300 -300 -300 -300 -300 -300 -300 -274 -204 -195 -231 -255 -296 -289 -140 -48 37 70 84 47 54 90 103 180 192 239 247 292 253 231 235 291 319 330 312 288 248 244 278 316 446 515 493
-300 -300 -300 -300 -272 -254 -189 -103 -47 5 13 49 55 80 108 158 213 293 412 462 483 407 347 261 243 222 289 261 207 135 69 19 0 44 172 232 254 287 349 396 407 461 494 516 508 408 286 227 193 103 84 93 67 -18 -149 -279 -300 -300 -300 -300 -300 -300 -300 -300 -300 -300 -300 -300 -300 -300 -300 -300 -300 -300 -300 -300 -300 -300 -300 -300 -300 -300 -275 -233 -280 -300 -300 -300 -300 -300 -300 -300 -300 -300 -300 -300 -300 -300 -300 -201 -106 -50 3 76 134 173 258 328 392 477 515 511 512 556 637 649 692 770 823 808 877 919 938 960 950 943 913 815 705 635 563 589 581 529 474 447 369 362 330 259 239 241 267 214 167 84 58 -23 -200 -300 -300 -300 -288 -300 -300 -300 -300 -300 -300 -300 -300 -300 -300 -300 -300 -300 -300 -300 -300 -300 -300 -300 -300 -300 -300 -300 -300 -300 -300 -227 -197 -227 -231 -275 -267 -151 -31 -15 6 19 151 255 345 322 310 287 201 100 80 25 -13 -68 -87 -171 -240 -281 -207 -205 -223 -285 -300 -300 -300 -300 -300 -300 -300 -300 -300 -300 -300 -239 -213 -219 -259 -279 -224 -150 -78 -24 40 108 112 110 114 167 237 223 248 305 302 259 197 220 233 257 263 236 200 186 189 236 295 422 527 558
-290 -300 -300 -296 -269 -258 -227 -136 -79 -19 -17 54 110 154 190 252 299 334 429 488 514 418 330 241 227 231 269 244 184 135 97 42 3 -8 54 117 194 212 300 340 383 461 495 473 460 405 285 229 178 84 62 64 0 -141 -252 -300 -300 -300 -300 -300 -300 -300 -300 -300 -300 -300 -300 -300 -300 -300 -300 -300 -300 -300 -300 -300 -300 -300 -300 -300 -300 -300 -299 -275 -300 -300 -300 -300 -300 -300 -300 -300 -300 -300 -300 -300 -300 -300 -300 -187 -100 -59 12 100 184 250 289 346 405 510 553 548 550 588 588 583 607 672 754 767 823 910 962 988 994 985 982 901 792 688 571 569 565 540 482 473 397 354 286 233 197 215 256 227 195 150 78 -30 -130 -198 -225 -234 -265 -300 -300 -300 -300 -300 -300 -300 -300 -300 -300 -300 -300 -300 -300 -300 -300 -300 -300 -300 -300 -300 -300 -300 -300 -300 -282 -219 -231 -240 -245 -265 -195 -70 25 26 32 32 168 252 292 281 264 245 161 90 12 -67 -81 -119 -113 -183 -218 -277 -273 -247 -204 -267 -300 -300 -300 -300 -300 -300 -300 -300 -300 -300 -300 -223 -191 -172 -213 -235 -204 -211 -146 -74 52 123 153 154 187 242 261 250 247 259 276 265 222 238 218 170 128 90 68 117 150 175 215 335 478 567
-277 -279 -300 -297 -300 -250 -201 -172 -101 -68 23 78 116 170 191 266 294 343 391 440 477 428 312 224 191 214 238 271 204 145 83 42 -11 -20 -15 49 124 188 293 326 359 438 432 370 376 297 230 131 60 16 -8 -42 -124 -289 -300 -300 -300 -300 -300 -300 -300 -300 -300 -300 -300 -300 -300 -300 -300 -300 -300 -300 -300 -300 -300 -300 -300 -300 -300 -300 -300 -300 -300 -300 -300 -300 -300 -300 -300 -300 -300 -300 -300 -300 -300 -300 -300 -300 -300 -223 -123 -62 44 121 213 307 372 405 470 525 575 557 547 597 578 545 538 577 676 693 775 839 922 952 1043 1024 985 966 858 742 670 592 576 537 510 461 416 376 301 190 138 140 176 208 183 136 75 -2 -92 -100 -118 -130 -233 -274 -300 -300 -300 -300 -300 -300 -300 -300 -300 -300 -300 -300 -300 -300 -300 -300 -300 -300 -300 -300 -300 -300 -300 -255 -197 -162 -215 -245 -258 -235 -121 -43 80 72 62 38 128 214 271 281 235 196 81 -13 -76 -142 -180 -216 -190 -194 -217 -300 -300 -300 -300 -300 -300 -300 -300 -300 -300 -300 -300 -300 -300 -300 -300 -252 -177 -151 -234 -252 -256 -271 -235 -155 -8 106 169 186 205 259 274 249 233 244 230 219 161 127 149 94 70 4 -4 88 104 116 170 266 366 447
-271 -261 -238 -297 -290 -213 -186 -187 -164 -93 40 121 142 170 186 230 287 301 334 407 414 353 241 155 144 179 192 215 171 123 19 24 -10 -10 6 31 82 176 254 287 282 328 323 231 216 195 128 5 -90 -128 -96 -126 -222 -300 -300 -300 -300 -300 -300 -300 -300 -300 -300 -300 -300 -300 -300 -300 -300 -300 -300 -300 -300 -300 -300 -300 -300 -300 -300 -300 -300 -300 -300 -300 -300 -300 -300 -300 -300 -300 -300 -300 -300 -300 -300 -300 -300 -300 -300 -231 -157 -70 14 155 263 349 389 413 481 535 557 538 510 543 548 541 512 484 573 645 756 811 869 903 968 968 924 903 889 822 757 704 633 579 538 470 410 373 297 222 103 78 133 112 125 182 138 77 28 -18 -57 -112 -208 -198 -243 -274 -300 -300 -300 -300 -300 -300 -300 -300 -300 -300 -300 -300 -300 -300 -300 -300 -300 -300 -300 -300 -300 -213 -155 -137 -141 -156 -196 -200 -111 -4 127 119 74 40 77 159 177 192 159 62 -66 -135 -132 -168 -259 -284 -269 -222 -295 -300 -300 -300 -300 -300 -300 -300 -300 -300 -300 -300 -300 -300 -300 -300 -300 -300 -225 -213 -262 -276 -286 -300 -299 -203 -75 -3 57 107 175 224 223 189 197 197 185 137 111 68 69 62 20 -42 -42 36 58 61 94 174 236 276
-270 -271 -228 -256 -290 -258 -246 -246 -206 -148 -6 93 124 143 182 224 305 297 273 339 339 273 179 88 64 96 100 116 82 90 24 8 0 5 -10 22 79 174 219 221 234 257 235 157 137 114 34 -68 -155 -203 -188 -197 -284 -300 -300 -300 -300 -300 -300 -300 -300 -300 -300 -300 -300 -300 -300 -300 -300 -300 -300 -300 -300 -300 -300 -300 -300 -300 -300 -300 -300 -300 -300 -300 -300 -300 -300 -300 -300 -300 -300 -300 -300 -300 -300 -300 -300 -300 -300 -215 -100 -18 33 147 257 317 348 373 438 457 452 425 398 424 432 436 411 435 496 584 669 777 834 854 876 885 863 853 836 867 876 800 729 704 670 580 496 415 310 207 123 110 142 127 184 191 172 166 104 -10 -67 -113 -187 -188 -219 -274 -300 -300 -300 -300 -300 -300 -300 -300 -300 -300 -300 -300 -300 -300 -300 -300 -300 -300 -300 -300 -300 -230 -148 -133 -108 -115 -145 -125 -25 78 141 141 74 33 26 106 131 92 47 -30 -132 -171 -219 -223 -294 -300 -300 -300 -300 -300 -300 -300 -300 -300 -300 -300 -300 -300 -300 -300 -300 -300 -300 -300 -300 -300 -290 -270 -262 -300 -300 -300 -300 -247 -165 -109 -54 9 47 83 80 43 72 115 166 93 20 -1 -11 -33 -91 -104 -110 -25 11 21 24 85 137 159
-268 -264 -247 -247 -278 -275 -260 -294 -249 -167 -48 57 109 128 189 232 305 283 252 264 239 175 99 37 -28 -6 0 2 15 41 13 21 16 -2 -20 53 82 141 144 167 199 142 107 83 18 3 -28 -117 -190 -226 -246 -263 -300 -300 -300 -300 -300 -300 -300 -300 -300 -300 -300 -300 -300 -300 -300 -300 -300 -300 -300 -300 -300 -300 -300 -300 -300 -300 -300 -300 -300 -300 -300 -300 -300 -300 -300 -300 -300 -300 -300 -300 -300 -300 -300 -300 -300 -300 -300 -187 -69 -2 125 215 256 313 329 385 410 416 362 335 316 303 331 366 354 360 379 468 570 712 788 830 791 804 798 770 798 906 934 902 827 797 772 699 598 499 426 253 107 93 116 166 176 193 227 232 164 13 -59 -126 -149 -173 -215 -300 -300 -300 -300 -300 -300 -300 -300 -300 -300 -300 -300 -300 -300 -300 -300 -300 -300 -300 -300 -300 -300 -254 -159 -116 -44 -44 -89 -65 24 157 180 164 142 66 36 72 78 -13 -74 -128 -169 -220 -263 -267 -300 -300 -300 -300 -300 -300 -300 -300 -300 -300 -300 -300 -300 -300 -300 -300 -300 -300 -300 -300 -300 -300 -300 -300 -300 -300 -300 -300 -300 -300 -278 -230 -176 -112 -80 -69 -64 -101 -81 -37 39 17 -28 -2 -61 -109 -171 -171 -146 -93 -4 8 -7 10 16 20
-300 -296 -276 -267 -235 -235 -241 -275 -281 -235 -143 -72 15 110 175 222 298 290 234 163 98 58 35 16 -52 -67 -84 -77 -35 6 -8 17 13 -22 -6 76 102 117 116 160 138 19 -87 -68 -76 -107 -146 -217 -253 -270 -285 -300 -300 -300 -300 -300 -300 -300 -300 -300 -300 -300 -300 -300 -300 -300 -300 -300 -300 -300 -300 -300 -300 -300 -300 -300 -300 -300 -300 -300 -300 -300 -300 -300 -300 -300 -300 -300 -300 -300 -300 -300 -300 -300 -300 -300 -300 -300 -300 -203 -74 19 144 180 208 255 310 390 435 414 345 313 295 253 304 359 351 312 348 431 459 558 621 744 757 787 793 789 838 917 968 960 849 793 797 778 722 563 460 337 187 142 137 153 113 179 213 193 137 21 -53 -95 -105 -163 -231 -300 -300 -300 -300 -300 -300 -300 -300 -300 -300 -300 -300 -300 -300 -300 -300 -300 -300 -300 -300 -300 -300 -268 -172 -106 -50 -47 -54 -18 58 178 188 161 175 142 29 16 3 -57 -114 -230 -265 -294 -300 -300 -300 -300 -300 -300 -300 -300 -300 -300 -300 -300 -300 -300 -300 -300 -300 -300 -300 -300 -300 -300 -300 -300 -300 -300 -300 -300 -300 -300 -300 -300 -300 -300 -259 -206 -161 -162 -156 -183 -201 -198 -135 -110 -118 -107 -176 -190 -253 -267 -244 -185 -113 -8 19 -45 -55 -58
-300 -281 -300 -290 -252 -300 -300 -300 -300 -283 -212 -146 -97 46 94 125 182 235 260 182 116 74 39 28 -80 -157 -197 -228 -173 -115 -103 -65 -33 -29 -5 57 101 61 63 57 58 -35 -136 -146 -156 -152 -202 -247 -298 -300 -300 -300 -300 -300 -300 -300 -300 -300 -300 -300 -300 -300 -300 -300 -300 -300 -300 -300 -300 -300 -300 -300 -300 -300 -300 -300 -300 -300 -300 -300 -300 -300 -300 -300 -300 -300 -300 -300 -300 -300 -300 -300 -300 -300 -300 -300 -300 -300 -284 -222 -104 -26 84 147 188 262 328 387 431 356 311 305 329 263 294 324 306 300 306 350 366 435 514 634 660 703 758 798 892 927 987 947 848 813 820 824 741 605 478 355 246 193 175 199 160 149 164 167 127 73 -22 -96 -133 -205 -258 -300 -300 -300 -300 -300 -300 -300 -300 -300 -300 -300 -300 -300 -300 -300 -300 -300 -300 -300 -300 -300 -300 -300 -230 -132 -82 -79 -66 -11 69 177 195 191 210 155 70 58 21 -47 -125 -229 -283 -295 -299 -300 -300 -300 -300 -300 -300 -300 -300 -300 -300 -300 -300 -300 -300 -300 -300 -300 -300 -300 -300 -300 -300 -300 -300 -300 -300 -300 -300 -300 -300 -300 -300 -300 -300 -292 -236 -209 -191 -194 -239 -255 -233 -177 -182 -231 -297 -300 -300 -300 -300 -245 -154 -85 -38 -93 -100 -125
-257 -242 -280 -300 -300 -300 -300 -300 -300 -300 -300 -255 -183 -40 -17 12 93 180 212 200 134 76 16 -26 -122 -231 -300 -300 -300 -278 -194 -99 -84 -38 -4 12 40 -15 -4 8 -12 -38 -126 -162 -166 -165 -201 -242 -296 -300 -300 -300 -300 -300 -300 -300 -300 -300 -300 -300 -300 -300 -300 -300 -300 -300 -300 -300 -300 -300 -300 -300 -300 -300 -300 -300 -300 -300 -300 -300 -300 -300 -300 -300 -300 -300 -300 -300 -300 -300 -300 -300 -300 -300 -300 -300 -300 -300 -300 -286 -169 -102 9 94 161 218 308 360 400 344 260 297 344 296 323 308 261 267 299 323 313 306 421 539 563 644 705 798 895 948 961 904 878 827 856 863 763 615 452 340 269 210 209 199 160 151 119 91 82 26 -54 -165 -195 -249 -299 -300 -300 -300 -300 -300 -300 -300 -300 -300 -300 -300 -300 -300 -300 -300 -300 -300 -300 -300 -300 -300 -300 -296 -236 -177 -104 -79 -36 -4 98 153 191 210 221 169 129 93 57 -20 -116 -193 -237 -276 -282 -300 -300 -300 -300 -300 -300 -300 -300 -300 -300 -300 -300 -300 -300 -300 -300 -300 -300 -300 -300 -300 -300 -300 -300 -300 -300 -300 -300 -300 -300 -300 -300 -300 -300 -300 -267 -222 -221 -222 -289 -300 -270 -217 -231 -300 -300 -300 -300 -300 -300 -281 -181 -133 -73 -125 -164 -135
-281 -265 -291 -300 -300 -300 -300 -300 -300 -300 -300 -300 -300 -154 -71 -66 -9 53 101 121 55 30 -2 -87 -177 -230 -300 -300 -300 -300 -247 -144 -99 -66 -26 -3 32 -15 -12 -48 -42 -21 -94 -116 -87 -71 -92 -124 -178 -228 -300 -300 -300 -300 -300 -300 -300 -300 -300 -300 -300 -300 -300 -300 -300 -300 -300 -300 -300 -300 -300 -300 -300 -300 -300 -300 -300 -300 -300 -300 -300 -300 -300 -300 -300 -300 -300 -300 -300 -300 -300 -300 -300 -300 -300 -300 -300 -300 -300 -300 -245 -153 -31 40 147 226 315 342 369 323 241 282 330 317 305 307 275 255 243 229 233 238 344 458 513 588 705 806 892 933 907 898 891 850 843 833 736 576 412 331 270 186 116 98 98 97 74 35 -28 -84 -179 -294 -300 -300 -300 -300 -300 -300 -300 -300 -300 -300 -300 -300 -300 -300 -300 -300 -300 -300 -300 -300 -300 -300 -300 -300 -300 -300 -205 -151 -74 -73 11 94 152 152 173 188 210 240 155 69 26 5 -67 -155 -187 -218 -264 -300 -272 -275 -300 -300 -300 -300 -300 -300 -300 -300 -300 -300 -300 -300 -300 -300 -300 -300 -300 -300 -300 -300 -300 -300 -300 -300 -300 -300 -300 -300 -300 -300 -300 -300 -300 -273 -265 -300 -300 -300 -300 -300 -300 -300 -300 -300 -300 -300 -300 -300 -251 -172 -97 -147 -220 -225
